# .PCD v.7 - Point Cloud Data file format
VERSION .7
FIELDS x y z
SIZE 4 4 4
TYPE F F F
COUNT 1 1 1
WIDTH 1649
HEIGHT 1
POINTS 1649
DATA ascii
0.324645 0.321342 0.062173 
0.324646 0.331355 0.075556 
0.324649 0.302203 0.372179 
0.324651 0.321348 0.308121 
0.324653 0.314843 0.274437 
0.324656 0.321353 0.150638 
0.324659 0.314848 0.208499 
0.324661 0.308470 0.285312 
0.324666 0.318093 0.229106 
0.324673 0.305338 0.281220 
0.324674 0.321371 0.144044 
0.324703 0.305367 0.292246 
0.324712 0.318138 0.141160 
0.324713 0.314900 0.180468 
0.324722 0.331432 0.061093 
0.324730 0.314917 0.266463 
0.324734 0.311715 0.241872 
0.324745 0.314931 0.235498 
0.324752 0.324752 0.078924 
0.324753 0.290132 0.392116 
0.324760 0.321456 0.080579 
0.324768 0.324768 0.164910 
0.324769 0.308573 0.256053 
0.324770 0.302315 0.349793 
0.324770 0.321466 0.118186 
0.324771 0.331483 0.096533 
0.324772 0.314958 0.169156 
0.324780 0.321476 0.105509 
0.324784 0.314969 0.296632 
0.324786 0.302330 0.362545 
0.324788 0.324788 0.176323 
0.324794 0.314979 0.310963 
0.324795 0.324795 0.194981 
0.324795 0.302339 0.352971 
0.324803 0.302346 0.359347 
0.324806 0.302349 0.356156 
0.324809 0.305467 0.315127 
0.324812 0.314996 0.160234 
0.324815 0.324815 0.149262 
0.324821 0.331534 0.144126 
0.324827 0.331540 0.067305 
0.324828 0.321523 0.090919 
0.324840 0.305495 0.370880 
0.324858 0.318281 0.156605 
0.324860 0.321555 0.152947 
0.324862 0.331575 0.079770 
0.324866 0.305520 0.327000 
0.324866 0.321561 0.184687 
0.324874 0.331587 0.073531 
0.324874 0.308673 0.277320 
0.324893 0.308691 0.299458 
0.324894 0.315076 0.271946 
0.324904 0.308702 0.228363 
0.324905 0.331620 0.059068 
0.324914 0.290275 0.388880 
0.324934 0.305584 0.247259 
0.324941 0.331656 0.090259 
0.324946 0.308741 0.372798 
0.324972 0.302503 0.310884 
0.324974 0.308768 0.288345 
0.324981 0.318401 0.212160 
0.324987 0.318407 0.179225 
0.324992 0.324992 0.076919 
0.325003 0.325003 0.181058 
0.325007 0.321700 0.078585 
0.325017 0.302545 0.334614 
0.325022 0.325022 0.127479 
0.325028 0.318447 0.105059 
0.325029 0.331746 0.065279 
0.325033 0.315211 0.243292 
0.325040 0.315218 0.173815 
0.325042 0.305685 0.384481 
0.325042 0.302569 0.379283 
0.325049 0.315226 0.299707 
0.325050 0.315228 0.189881 
0.325055 0.321748 0.155262 
0.325063 0.331781 0.094507 
0.325066 0.312034 0.257542 
0.325068 0.315244 0.253600 
0.325082 0.302605 0.392939 
0.325083 0.331801 0.057042 
0.325085 0.305726 0.270805 
0.325087 0.321779 0.191815 
0.325090 0.315267 0.282983 
0.325103 0.331821 0.077744 
0.325104 0.321797 0.103514 
0.325117 0.321809 0.175607 
0.325120 0.321812 0.148644 
0.325122 0.315297 0.288536 
0.325132 0.312097 0.278899 
0.325162 0.315336 0.176151 
0.325176 0.325176 0.118937 
0.325186 0.315359 0.317193 
0.325190 0.302706 0.340912 
0.325209 0.305843 0.276268 
0.325211 0.305845 0.312605 
0.325213 0.315386 0.196988 
0.325213 0.331934 0.088233 
0.325217 0.318632 0.161235 
0.325219 0.325219 0.110426 
0.325226 0.331946 0.063252 
0.325231 0.315403 0.251137 
0.325233 0.309014 0.296948 
0.325243 0.302756 0.325817 
0.325246 0.312206 0.255081 
0.325248 0.321938 0.076589 
0.325250 0.315422 0.199366 
0.325255 0.302767 0.344071 
0.325259 0.331980 0.142099 
0.325260 0.325260 0.091504 
0.325263 0.315434 0.216123 
0.325267 0.315438 0.274956 
0.325272 0.302783 0.369601 
0.325273 0.325273 0.147256 
0.325274 0.325274 0.162904 
0.325275 0.315445 0.178492 
0.325277 0.318691 0.124157 
0.325282 0.321972 0.203781 
0.325288 0.315458 0.213717 
0.325299 0.315469 0.167181 
0.325310 0.315480 0.158258 
0.325311 0.332033 0.069477 
0.325318 0.305945 0.268340 
0.325324 0.305950 0.287263 
0.325331 0.322021 0.150951 
0.325336 0.315505 0.259031 
0.325337 0.332060 0.075717 
0.325344 0.318756 0.154619 
0.325348 0.315517 0.266971 
0.325349 0.332072 0.092480 
0.325361 0.302865 0.308374 
0.325371 0.305995 0.342738 
0.325372 0.302876 0.359976 
0.325375 0.325375 0.095718 
0.325377 0.318790 0.227121 
0.325379 0.322068 0.086927 
0.325385 0.315552 0.248677 
0.325389 0.322079 0.168911 
0.325393 0.325393 0.192975 
0.325401 0.315568 0.138591 
0.325408 0.315575 0.094293 
0.325415 0.315582 0.286023 
0.325419 0.332143 0.052986 
0.325422 0.315588 0.291591 
0.325422 0.322111 0.101517 
0.325425 0.309196 0.314325 
0.325431 0.306051 0.345908 
0.325454 0.325454 0.072905 
0.325457 0.332182 0.096737 
0.325475 0.312426 0.281923 
0.325479 0.315644 0.233522 
0.325490 0.325490 0.121197 
0.325520 0.318929 0.195799 
0.325524 0.325524 0.104176 
0.325530 0.303023 0.320174 
0.325537 0.332265 0.101003 
0.325540 0.325540 0.116929 
0.325542 0.318951 0.177238 
0.325550 0.309315 0.228817 
0.325557 0.325557 0.108418 
0.325559 0.325559 0.179051 
0.325563 0.315725 0.185544 
0.325564 0.306176 0.279273 
0.325576 0.309340 0.254096 
0.325577 0.332305 0.050957 
0.325578 0.322265 0.146646 
0.325582 0.315743 0.171837 
0.325599 0.303087 0.297236 
0.325599 0.303087 0.379932 
0.325623 0.309385 0.226405 
0.325639 0.319046 0.210173 
0.325646 0.322332 0.084929 
0.325651 0.325651 0.056554 
0.325661 0.319067 0.122169 
0.325666 0.315825 0.243766 
0.325667 0.325667 0.093710 
0.325678 0.322365 0.189817 
0.325689 0.303170 0.323287 
0.325689 0.332420 0.140070 
0.325693 0.303174 0.338365 
0.325700 0.315858 0.092314 
0.325712 0.315870 0.190268 
0.325718 0.315876 0.226228 
0.325724 0.325724 0.145247 
0.325730 0.322416 0.135766 
0.325730 0.332461 0.048926 
0.325734 0.322420 0.099518 
0.325743 0.325743 0.046394 
0.325748 0.309504 0.275362 
0.325749 0.332481 0.094706 
0.325756 0.322441 0.164572 
0.325765 0.315921 0.308986 
0.325773 0.325773 0.160895 
0.325787 0.332519 0.071657 
0.325803 0.315958 0.156279 
0.325819 0.315973 0.165202 
0.325823 0.322508 0.116437 
0.325827 0.315981 0.195010 
0.325842 0.325842 0.102166 
0.325843 0.332576 0.098973 
0.325845 0.303316 0.264855 
0.325850 0.325850 0.134324 
0.325859 0.316012 0.251622 
0.325871 0.316024 0.197387 
0.325876 0.316029 0.218966 
0.325883 0.309632 0.286386 
0.325884 0.303352 0.347854 
0.325888 0.325888 0.106409 
0.325890 0.316042 0.143142 
0.325892 0.325892 0.068886 
0.325896 0.309644 0.179356 
0.325898 0.325898 0.114919 
0.325902 0.306494 0.325051 
0.325911 0.322595 0.201782 
0.325941 0.303405 0.360606 
0.325949 0.332684 0.055132 
0.325953 0.325953 0.091699 
0.325954 0.303417 0.317650 
0.325954 0.316104 0.211738 
0.325962 0.316112 0.206938 
0.325982 0.319382 0.099094 
0.325985 0.316134 0.297729 
0.325986 0.316136 0.090333 
0.325997 0.309740 0.272880 
0.325998 0.309740 0.181690 
0.326003 0.332740 0.069625 
0.326024 0.294279 0.395461 
0.326027 0.316175 0.416169 
0.326030 0.322712 0.144646 
0.326038 0.312966 0.225336 
0.326039 0.322722 0.097517 
0.326046 0.312974 0.253112 
0.326084 0.322767 0.122946 
0.326097 0.313023 0.222919 
0.326108 0.303561 0.303357 
0.326114 0.332853 0.053099 
0.326122 0.309858 0.370839 
0.326122 0.316267 0.145427 
0.326130 0.313055 0.240375 
0.326141 0.316286 0.183563 
0.326142 0.332882 0.096940 
0.326144 0.316289 0.257051 
0.326147 0.322828 0.118687 
0.326148 0.322829 0.133765 
0.326154 0.326154 0.100154 
0.326161 0.316305 0.246697 
0.326165 0.322847 0.105959 
0.326168 0.306744 0.266389 
0.326169 0.309904 0.294987 
0.326176 0.291403 0.386975 
0.326181 0.322862 0.114436 
0.326182 0.316325 0.264991 
0.326186 0.303633 0.335818 
0.326186 0.294425 0.402657 
0.326187 0.322868 0.110193 
0.326194 0.294432 0.392209 
0.326202 0.306776 0.310654 
0.326207 0.309939 0.254589 
0.326208 0.316350 0.231541 
0.326227 0.316369 0.185923 
0.326233 0.326233 0.089687 
0.326234 0.306806 0.285312 
0.326235 0.322915 0.140345 
0.326235 0.309966 0.270401 
0.326249 0.326249 0.112907 
0.326251 0.303694 0.377342 
0.326261 0.306832 0.382530 
0.326263 0.322943 0.162570 
0.326264 0.322944 0.187816 
0.326268 0.309998 0.262472 
0.326273 0.333015 0.051066 
0.326273 0.333016 0.105500 
0.326289 0.316429 0.229106 
0.326295 0.319688 0.150638 
0.326304 0.326304 0.064862 
0.326305 0.316445 0.188286 
0.326308 0.316447 0.284042 
0.326315 0.333058 0.090641 
0.326334 0.316472 0.163220 
0.326335 0.316474 0.141160 
0.326336 0.310063 0.224443 
0.326339 0.323018 0.095515 
0.326342 0.303779 0.306431 
0.326343 0.306909 0.256053 
0.326351 0.303787 0.342129 
0.326358 0.323037 0.066587 
0.326374 0.316512 0.190655 
0.326377 0.310101 0.252134 
0.326387 0.316524 0.262506 
0.326410 0.319801 0.118186 
0.326412 0.323091 0.072749 
0.326426 0.316562 0.241784 
0.326435 0.333180 0.094906 
0.326435 0.316570 0.193027 
0.326458 0.307017 0.340786 
0.326460 0.310180 0.177393 
0.326463 0.323141 0.120942 
0.326467 0.303895 0.300851 
0.326475 0.323153 0.142643 
0.326479 0.310198 0.217228 
0.326482 0.316616 0.156605 
0.326487 0.316621 0.195404 
0.326491 0.323169 0.103955 
0.326507 0.326507 0.087673 
0.326515 0.319904 0.139760 
0.326525 0.323203 0.108189 
0.326530 0.310246 0.212437 
0.326532 0.323210 0.112432 
0.326545 0.303967 0.295292 
0.326559 0.316691 0.216984 
0.326559 0.323237 0.131761 
0.326561 0.323238 0.064583 
0.326563 0.303985 0.309514 
0.326564 0.316696 0.200171 
0.326576 0.294776 0.396130 
0.326584 0.316715 0.281530 
0.326592 0.333341 0.103465 
0.326601 0.304019 0.384481 
0.326607 0.316737 0.204955 
0.326614 0.313519 0.228206 
0.326614 0.316744 0.209755 
0.326615 0.316745 0.207353 
0.326630 0.316760 0.292673 
0.326632 0.323309 0.093510 
0.326655 0.316784 0.236883 
0.326688 0.304101 0.262910 
0.326697 0.323373 0.046294 
0.326713 0.316840 0.181579 
0.326718 0.304129 0.321343 
0.326721 0.333473 0.092870 
0.326727 0.294913 0.379259 
0.326758 0.323433 0.062578 
0.326761 0.320146 0.148644 
0.326770 0.304177 0.336420 
0.326771 0.304178 0.312605 
0.326786 0.310490 0.284422 
0.326793 0.320177 0.111957 
0.326807 0.316931 0.183938 
0.326809 0.333563 0.053213 
0.326809 0.304214 0.377988 
0.326842 0.316965 0.161235 
0.326844 0.326844 0.143533 
0.326859 0.313754 0.199366 
0.326860 0.323534 0.171958 
0.326891 0.313785 0.090138 
0.326905 0.295074 0.389626 
0.326910 0.317031 0.098881 
0.326914 0.317035 0.295745 
0.326919 0.313813 0.208917 
0.326930 0.317050 0.229556 
0.326931 0.317051 0.244712 
0.326932 0.307463 0.323095 
0.326948 0.333704 0.074000 
0.326949 0.323622 0.060571 
0.326956 0.307486 0.338225 
0.326961 0.310656 0.155302 
0.326965 0.323638 0.129755 
0.326965 0.304358 0.315704 
0.326968 0.317088 0.188669 
0.326969 0.333726 0.051174 
0.326969 0.317089 0.154619 
0.326978 0.317097 0.103072 
0.326988 0.333745 0.059447 
0.326992 0.304383 0.345908 
0.327003 0.317122 0.227121 
0.327009 0.310702 0.252623 
0.327012 0.310704 0.312934 
0.327012 0.307538 0.264433 
0.327014 0.304404 0.327591 
0.327035 0.323707 0.095718 
0.327043 0.310734 0.222477 
0.327051 0.317168 0.174890 
0.327060 0.317177 0.242253 
0.327068 0.317184 0.224689 
0.327074 0.327074 0.071201 
0.327087 0.310776 0.268435 
0.327096 0.317211 0.193418 
0.327114 0.317230 0.252592 
0.327122 0.333882 0.049135 
0.327134 0.323805 0.058563 
0.327139 0.320515 0.109959 
0.327154 0.307671 0.254096 
0.327163 0.310848 0.215261 
0.327167 0.333927 0.057408 
0.327168 0.320544 0.091114 
0.327170 0.317283 0.219835 
0.327172 0.314055 0.088160 
0.327177 0.320553 0.153265 
0.327178 0.314061 0.231087 
0.327180 0.317294 0.239797 
0.327186 0.307702 0.308697 
0.327199 0.310882 0.210470 
0.327199 0.323870 0.089496 
0.327202 0.317314 0.126410 
0.327206 0.317318 0.260519 
0.327227 0.327227 0.054779 
0.327245 0.317356 0.086554 
0.327246 0.317357 0.202968 
0.327255 0.304629 0.333871 
0.327255 0.317366 0.212583 
0.327261 0.317372 0.205366 
0.327266 0.317377 0.210173 
0.327268 0.317379 0.207767 
0.327269 0.334032 0.047095 
0.327279 0.317389 0.179592 
0.327292 0.310970 0.368872 
0.327298 0.317407 0.101084 
0.327305 0.310983 0.235036 
0.327312 0.334076 0.107983 
0.327312 0.323982 0.056554 
0.327318 0.304687 0.304483 
0.327320 0.327320 0.075395 
0.327321 0.314198 0.294655 
0.327328 0.323998 0.093710 
0.327339 0.334103 0.055367 
0.327344 0.317452 0.159247 
0.327380 0.317487 0.181950 
0.327390 0.324059 0.169950 
0.327393 0.327393 0.052760 
0.327394 0.317501 0.234895 
0.327418 0.307920 0.259506 
0.327425 0.320796 0.175965 
0.327432 0.292525 0.385063 
0.327444 0.314316 0.221383 
0.327446 0.314318 0.086181 
0.327449 0.320819 0.089114 
0.327453 0.304812 0.375393 
0.327462 0.317566 0.170557 
0.327463 0.317567 0.279543 
0.327467 0.320837 0.116437 
0.327472 0.317576 0.184313 
0.327473 0.307972 0.380572 
0.327479 0.320848 0.107960 
0.327483 0.314354 0.197387 
0.327485 0.324153 0.054544 
0.327485 0.304842 0.293342 
0.327487 0.295599 0.400736 
0.327501 0.327501 0.067161 
0.327517 0.317620 0.094904 
0.327518 0.317621 0.161569 
0.327522 0.314391 0.238866 
0.327523 0.324190 0.119187 
0.327556 0.317658 0.186680 
0.327560 0.324227 0.114919 
0.327570 0.311235 0.173456 
0.327574 0.295677 0.344776 
0.327574 0.314441 0.206938 
0.327595 0.317695 0.124420 
0.327606 0.295707 0.387041 
0.327616 0.324282 0.091699 
0.327646 0.317745 0.227567 
0.327651 0.324317 0.052533 
0.327659 0.305005 0.356084 
0.327672 0.295766 0.357459 
0.327676 0.317774 0.088733 
0.327683 0.311342 0.282453 
0.327694 0.311352 0.175789 
0.327698 0.317796 0.191428 
0.327706 0.327706 0.048717 
0.327711 0.317808 0.225131 
0.327730 0.314591 0.233980 
0.327732 0.305073 0.266389 
0.327736 0.295824 0.383800 
0.327741 0.305081 0.319392 
0.327744 0.311400 0.220507 
0.327766 0.305104 0.296396 
0.327794 0.321158 0.068590 
0.327802 0.334576 0.065836 
0.327805 0.311458 0.250652 
0.327810 0.324475 0.050521 
0.327816 0.317910 0.240263 
0.327816 0.317910 0.220270 
0.327827 0.321190 0.114436 
0.327835 0.311487 0.157928 
0.327839 0.317933 0.157256 
0.327842 0.305175 0.334469 
0.327849 0.308325 0.262472 
0.327853 0.327853 0.046695 
0.327856 0.295932 0.394207 
0.327861 0.334636 0.057529 
0.327861 0.311511 0.208499 
0.327885 0.317977 0.215423 
0.327889 0.324553 0.117176 
0.327894 0.317986 0.137476 
0.327896 0.305225 0.271843 
0.327897 0.324561 0.089687 
0.327902 0.317993 0.203374 
0.327902 0.317994 0.250601 
0.327903 0.327903 0.063117 
0.327906 0.317997 0.213006 
0.327914 0.324577 0.167938 
0.327916 0.318007 0.205776 
0.327923 0.305250 0.305046 
0.327931 0.311577 0.151361 
0.327933 0.311580 0.266463 
0.327946 0.318036 0.179958 
0.327949 0.305275 0.263926 
0.327952 0.296019 0.377335 
0.327956 0.308426 0.321134 
0.327958 0.308428 0.252134 
0.327964 0.324627 0.048508 
0.327971 0.321330 0.173963 
0.327980 0.334758 0.116855 
0.327981 0.318070 0.122428 
0.327983 0.324646 0.181791 
0.327993 0.318081 0.168565 
0.327998 0.311642 0.310963 
0.328019 0.318107 0.258528 
0.328021 0.318109 0.159577 
0.328032 0.318119 0.235353 
0.328034 0.334812 0.055485 
0.328041 0.318128 0.118186 
0.328046 0.311686 0.233064 
0.328075 0.318161 0.109726 
0.328086 0.305402 0.372798 
0.328094 0.328094 0.061093 
0.328101 0.314947 0.195404 
0.328104 0.311742 0.185165 
0.328111 0.324773 0.046494 
0.328116 0.311753 0.171483 
0.328126 0.318211 0.232903 
0.328131 0.318215 0.152947 
0.328134 0.318218 0.170907 
0.328138 0.314982 0.219401 
0.328139 0.321495 0.103955 
0.328153 0.308611 0.412791 
0.328157 0.305468 0.261464 
0.328160 0.305471 0.316858 
0.328161 0.324822 0.186560 
0.328164 0.308622 0.306734 
0.328172 0.324833 0.087673 
0.328185 0.318267 0.128941 
0.328187 0.305496 0.366342 
0.328191 0.305499 0.350317 
0.328200 0.334982 0.053439 
0.328205 0.315047 0.202561 
0.328219 0.305525 0.353508 
0.328222 0.315063 0.204955 
0.328230 0.296270 0.398138 
0.328240 0.311871 0.243292 
0.328255 0.311886 0.299707 
0.328256 0.328256 0.050848 
0.328260 0.324920 0.081448 
0.328260 0.324920 0.110893 
0.328267 0.318347 0.173255 
0.328270 0.315109 0.236883 
0.328271 0.308722 0.247234 
0.328280 0.328280 0.059068 
0.328287 0.305589 0.302529 
0.328295 0.318374 0.189434 
0.328316 0.321669 0.138341 
0.328318 0.305618 0.331917 
0.328329 0.318407 0.155262 
0.328335 0.318414 0.277549 
0.328337 0.305636 0.319973 
0.328355 0.318433 0.225573 
0.328360 0.335146 0.051392 
0.328360 0.318438 0.164234 
0.328366 0.311991 0.240845 
0.328384 0.321735 0.097725 
0.328406 0.312029 0.149385 
0.328408 0.318484 0.116191 
0.328414 0.318489 0.223137 
0.328416 0.318492 0.107731 
0.328441 0.325099 0.085657 
0.328459 0.328459 0.057042 
0.328483 0.312102 0.238400 
0.328500 0.305787 0.323095 
0.328503 0.318576 0.218275 
0.328507 0.318580 0.177963 
0.328510 0.321859 0.081100 
0.328514 0.335303 0.049344 
0.328518 0.318590 0.166570 
0.328518 0.312135 0.206523 
0.328525 0.325182 0.121706 
0.328534 0.318607 0.215850 
0.328535 0.328535 0.098765 
0.328535 0.318608 0.201379 
0.328557 0.318629 0.203781 
0.328570 0.318641 0.211010 
0.328573 0.312188 0.280478 
0.328574 0.309007 0.164176 
0.328582 0.318652 0.137764 
0.328589 0.312203 0.180838 
0.328595 0.312208 0.248677 
0.328601 0.325257 0.108877 
0.328603 0.325260 0.113145 
0.328607 0.318677 0.150951 
0.328614 0.318684 0.180325 
0.328617 0.296619 0.339694 
0.328628 0.318697 0.144345 
0.328631 0.309061 0.298604 
0.328632 0.328632 0.055015 
0.328647 0.305924 0.411440 
0.328666 0.318734 0.168911 
0.328678 0.296674 0.371536 
0.328682 0.293642 0.383144 
0.328686 0.312295 0.183189 
0.328687 0.296683 0.342847 
0.328699 0.318767 0.101517 
0.328703 0.325359 0.083640 
0.328709 0.305982 0.294439 
0.328723 0.325378 0.056798 
0.328737 0.325392 0.184544 
0.328737 0.296727 0.368322 
0.328743 0.318809 0.133485 
0.328744 0.322088 0.136334 
0.328745 0.322089 0.165248 
0.328750 0.318816 0.105734 
0.328758 0.306028 0.317435 
0.328761 0.306030 0.269886 
0.328789 0.306056 0.261968 
0.328793 0.306060 0.354127 
0.328798 0.328798 0.052986 
0.328801 0.322144 0.121197 
0.328802 0.306069 0.360537 
0.328812 0.318876 0.153265 
0.328822 0.312424 0.153976 
0.328825 0.318889 0.256532 
0.328827 0.296809 0.355530 
0.328828 0.318891 0.246132 
0.328853 0.318915 0.230906 
0.328859 0.306121 0.193036 
0.328877 0.315692 0.143744 
0.328879 0.312478 0.243766 
0.328885 0.296861 0.301669 
0.328890 0.309304 0.301680 
0.328892 0.325545 0.102599 
0.328931 0.318991 0.228459 
0.328951 0.325604 0.111127 
0.328960 0.325613 0.081621 
0.328962 0.319021 0.243662 
0.328976 0.296943 0.381870 
0.328979 0.312573 0.308986 
0.328981 0.322320 0.093710 
0.328989 0.306242 0.259506 
0.328989 0.325642 0.075395 
0.328990 0.306244 0.267412 
0.329006 0.312599 0.241314 
0.329008 0.319066 0.155583 
0.329014 0.335813 0.115047 
0.329017 0.322355 0.127746 
0.329036 0.319093 0.164572 
0.329054 0.309458 0.245265 
0.329059 0.319115 0.223575 
0.329061 0.319118 0.175965 
0.329063 0.335863 0.091404 
0.329077 0.319133 0.148953 
0.329077 0.319133 0.142346 
0.329081 0.297038 0.378633 
0.329086 0.312675 0.197387 
0.329093 0.309495 0.162206 
0.329109 0.315914 0.146036 
0.329113 0.312700 0.303347 
0.329114 0.294028 0.387041 
0.329115 0.319169 0.107960 
0.329123 0.319178 0.112194 
0.329129 0.297081 0.392276 
0.329136 0.309536 0.304766 
0.329157 0.322493 0.102166 
0.329158 0.319211 0.131486 
0.329163 0.319216 0.199381 
0.329166 0.322501 0.134324 
0.329169 0.306410 0.314899 
0.329192 0.319244 0.166912 
0.329202 0.319254 0.238730 
0.329210 0.325860 0.079601 
0.329211 0.306449 0.264941 
0.329234 0.312816 0.236421 
0.329250 0.306486 0.300569 
0.329267 0.325917 0.117668 
0.329273 0.306507 0.370839 
0.329274 0.297212 0.343459 
0.329289 0.319338 0.151265 
0.329293 0.325942 0.109106 
0.329323 0.319371 0.097517 
0.329329 0.297261 0.346623 
0.329339 0.336145 0.089352 
0.329346 0.306575 0.289427 
0.329352 0.312928 0.306443 
0.329354 0.297284 0.365750 
0.329358 0.297288 0.307804 
0.329358 0.306586 0.309263 
0.329360 0.306587 0.254589 
0.329360 0.294248 0.380564 
0.329362 0.336168 0.112994 
0.329369 0.297298 0.349793 
0.329375 0.306602 0.329956 
0.329377 0.316172 0.193809 
0.329378 0.312953 0.246697 
0.329386 0.297313 0.362545 
0.329388 0.306614 0.270401 
0.329394 0.297321 0.352971 
0.329424 0.306647 0.226855 
0.329432 0.319477 0.133765 
0.329432 0.319477 0.068590 
0.329450 0.319494 0.105959 
0.329453 0.326101 0.077579 
0.329457 0.313028 0.278497 
0.329471 0.319515 0.110193 
0.329477 0.316267 0.217845 
0.329517 0.297431 0.396205 
0.329520 0.319562 0.140345 
0.329520 0.306737 0.275885 
0.329527 0.294397 0.390951 
0.329566 0.319607 0.129484 
0.329580 0.313145 0.226674 
0.329581 0.322908 0.132312 
0.329597 0.306808 0.298052 
0.329605 0.309977 0.160234 
0.329607 0.313170 0.262506 
0.329608 0.306819 0.281393 
0.329609 0.336420 0.087298 
0.329619 0.297524 0.334614 
0.329624 0.322950 0.064862 
0.329625 0.319664 0.095515 
0.329628 0.326275 0.115645 
0.329631 0.319670 0.085111 
0.329635 0.310005 0.233064 
0.329644 0.319683 0.066587 
0.329644 0.313205 0.224246 
0.329646 0.306854 0.292477 
0.329650 0.306858 0.286924 
0.329661 0.329661 0.051066 
0.329695 0.319732 0.078924 
0.329698 0.319735 0.136050 
0.329716 0.319752 0.099730 
0.329721 0.313278 0.176876 
0.329722 0.319758 0.241660 
0.329732 0.319767 0.176323 
0.329740 0.297633 0.305298 
0.329750 0.319786 0.120942 
0.329759 0.319795 0.149262 
0.329761 0.316540 0.184687 
0.329773 0.306972 0.273399 
0.329777 0.313332 0.416844 
0.329795 0.297682 0.340912 
0.329814 0.307011 0.257542 
0.329816 0.329816 0.049031 
0.329823 0.323145 0.062847 
0.329830 0.310189 0.243292 
0.329848 0.323169 0.172658 
0.329859 0.297740 0.299733 
0.329861 0.297742 0.344071 
0.329867 0.319898 0.167254 
0.329868 0.313418 0.167873 
0.329881 0.307073 0.278899 
0.329894 0.319925 0.083106 
0.329921 0.294749 0.394873 
0.329950 0.307138 0.358574 
0.329958 0.307144 0.409477 
0.329965 0.297836 0.317069 
0.329971 0.319999 0.151578 
0.329975 0.297845 0.353594 
0.329977 0.297847 0.386424 
0.329979 0.313523 0.234437 
0.329984 0.326627 0.113621 
0.329984 0.316755 0.191815 
0.329990 0.323309 0.130298 
0.330000 0.307184 0.229725 
0.330013 0.313556 0.170207 
0.330013 0.320041 0.169604 
0.330016 0.316785 0.142050 
0.330016 0.323334 0.060832 
0.330025 0.320052 0.097725 
0.330028 0.294845 0.377984 
0.330054 0.307233 0.262976 
0.330066 0.313606 0.161235 
0.330084 0.323401 0.096126 
0.330101 0.320126 0.101950 
0.330105 0.297962 0.332076 
0.330126 0.320150 0.118937 
0.330139 0.316903 0.093112 
0.330142 0.320166 0.068738 
0.330145 0.307319 0.224890 
0.330151 0.320174 0.171958 
0.330159 0.316922 0.215850 
0.330162 0.320185 0.114678 
0.330168 0.323483 0.079432 
0.330170 0.307341 0.252623 
0.330172 0.307343 0.312934 
0.330177 0.320199 0.074913 
0.330183 0.310521 0.235959 
0.330202 0.323517 0.058816 
0.330209 0.298057 0.297236 
0.330211 0.320232 0.091504 
0.330240 0.317000 0.180325 
0.330241 0.298085 0.393601 
0.330255 0.313785 0.148026 
0.330260 0.307426 0.293021 
0.330266 0.289038 0.388300 
0.330266 0.307431 0.413466 
0.330281 0.320300 0.174317 
0.330295 0.295083 0.398807 
0.330301 0.298139 0.323287 
0.330304 0.298142 0.376696 
0.330322 0.313850 0.193418 
0.330335 0.313862 0.276512 
0.330339 0.317095 0.182691 
0.330350 0.313876 0.222260 
0.330373 0.310699 0.231087 
0.330383 0.323693 0.056798 
0.330383 0.323694 0.170642 
0.330384 0.298214 0.373465 
0.330387 0.320403 0.136334 
0.330392 0.327031 0.075717 
0.330396 0.313919 0.165886 
0.330397 0.298225 0.390338 
0.330398 0.307555 0.273918 
0.330402 0.320418 0.079093 
0.330404 0.327042 0.092480 
0.330408 0.320424 0.072905 
0.330412 0.323722 0.077414 
0.330416 0.313938 0.198184 
0.330417 0.320433 0.099942 
0.330426 0.307580 0.327990 
0.330434 0.313956 0.260519 
0.330438 0.317190 0.153265 
0.330448 0.298272 0.326408 
0.330449 0.313970 0.200574 
0.330454 0.310775 0.228656 
0.330460 0.317211 0.140052 
0.330460 0.307612 0.168806 
0.330464 0.313984 0.214997 
0.330495 0.320508 0.116929 
0.330504 0.307652 0.279425 
0.330507 0.314025 0.179592 
0.330512 0.317261 0.187437 
0.330512 0.320525 0.108418 
0.330535 0.298350 0.351032 
0.330535 0.298351 0.363811 
0.330537 0.298352 0.387080 
0.330538 0.320549 0.132037 
0.330545 0.307691 0.296084 
0.330552 0.317299 0.084929 
0.330560 0.320571 0.064722 
0.330563 0.307708 0.284956 
0.330564 0.298376 0.357408 
0.330577 0.320588 0.250037 
0.330577 0.307721 0.290509 
0.330585 0.317331 0.189817 
0.330585 0.314099 0.274006 
0.330600 0.310913 0.241314 
0.330625 0.320634 0.093710 
0.330633 0.320642 0.070896 
0.330636 0.317380 0.155583 
0.330647 0.320655 0.077084 
0.330650 0.323955 0.075395 
0.330663 0.298466 0.383828 
0.330674 0.298476 0.262403 
0.330681 0.314190 0.152630 
0.330700 0.298499 0.332674 
0.330720 0.314227 0.146036 
0.330731 0.307864 0.227756 
0.330760 0.320765 0.062713 
0.330767 0.307898 0.242819 
0.330772 0.320776 0.087486 
0.330810 0.320814 0.134324 
0.330816 0.317553 0.082928 
0.330835 0.317572 0.213851 
0.330849 0.320851 0.106409 
0.330849 0.327483 0.071657 
0.330852 0.320854 0.068886 
0.330858 0.320860 0.114919 
0.330860 0.307984 0.222919 
0.330868 0.320869 0.110660 
0.330882 0.324183 0.073375 
0.330890 0.308012 0.261006 
0.330896 0.298676 0.338970 
0.330897 0.317631 0.138052 
0.330902 0.295625 0.362545 
0.330908 0.320908 0.147561 
0.330912 0.324212 0.168622 
0.330917 0.317650 0.151265 
0.330917 0.314415 0.163896 
0.330931 0.314428 0.191428 
0.330948 0.320948 0.130026 
0.330953 0.320952 0.060702 
0.330955 0.298729 0.390997 
0.330962 0.292650 0.377335 
0.330973 0.298745 0.342129 
0.330973 0.308090 0.250652 
0.330989 0.298760 0.315127 
0.330996 0.308111 0.166835 
0.331040 0.314531 0.196194 
0.331042 0.321039 0.085475 
0.331048 0.292725 0.401408 
0.331050 0.314541 0.220270 
0.331068 0.327700 0.069625 
0.331074 0.317800 0.080927 
0.331075 0.321070 0.136618 
0.331083 0.298845 0.348470 
0.331107 0.324404 0.071353 
0.331113 0.314601 0.200977 
0.331136 0.314623 0.203374 
0.331151 0.314637 0.205776 
0.331160 0.314646 0.150638 
0.331169 0.298923 0.295292 
0.331178 0.298930 0.330132 
0.331179 0.321171 0.104397 
0.331181 0.327812 0.053099 
0.331191 0.321183 0.117176 
0.331199 0.321191 0.089687 
0.331215 0.321206 0.112907 
0.331228 0.314710 0.168565 
0.331255 0.295941 0.376049 
0.331266 0.324559 0.054897 
0.331271 0.308366 0.256066 
0.331271 0.321261 0.064862 
0.331275 0.308370 0.245743 
0.331307 0.321295 0.083462 
0.331325 0.318042 0.078924 
0.331328 0.321316 0.093909 
0.331331 0.321319 0.138917 
0.331342 0.318058 0.164910 
0.331343 0.327972 0.051066 
0.331345 0.299081 0.321343 
0.331352 0.321340 0.128014 
0.331364 0.311631 0.239332 
0.331367 0.321353 0.145548 
0.331385 0.328014 0.090641 
0.331390 0.318104 0.149262 
0.331393 0.308480 0.277452 
0.331396 0.296067 0.369601 
0.331424 0.293058 0.394873 
0.331434 0.324723 0.052873 
0.331445 0.296110 0.366386 
0.331449 0.314920 0.272014 
0.331455 0.308538 0.225782 
0.331470 0.308552 0.282983 
0.331476 0.318187 0.178688 
0.331477 0.321460 0.087673 
0.331487 0.299209 0.339575 
0.331488 0.308569 0.294111 
0.331494 0.296154 0.353594 
0.331498 0.328125 0.049031 
0.331501 0.328128 0.084352 
0.331502 0.308582 0.288536 
0.331503 0.321485 0.102383 
0.331504 0.296163 0.356782 
0.331521 0.299241 0.374750 
0.331521 0.299241 0.260457 
0.331527 0.318236 0.056432 
0.331533 0.315000 0.189434 
0.331535 0.321516 0.154534 
0.331540 0.324827 0.067305 
0.331540 0.308617 0.240845 
0.331565 0.321546 0.081448 
0.331566 0.321546 0.110893 
0.331568 0.315033 0.155262 
0.331579 0.321560 0.141222 
0.331583 0.308657 0.411494 
0.331590 0.299303 0.371519 
0.331594 0.321573 0.075234 
0.331595 0.324882 0.050848 
0.331601 0.315065 0.120433 
0.331610 0.315073 0.253561 
0.331631 0.315093 0.175607 
0.331645 0.299352 0.368295 
0.331645 0.318349 0.169604 
0.331657 0.315118 0.194200 
0.331658 0.308727 0.238400 
0.331663 0.321641 0.052646 
0.331663 0.328289 0.088606 
0.331665 0.321643 0.060832 
0.331702 0.318403 0.054427 
0.331706 0.315164 0.196589 
0.331711 0.299411 0.361864 
0.331728 0.321703 0.156869 
0.331739 0.293337 0.388360 
0.331744 0.315200 0.218275 
0.331748 0.321723 0.085657 
0.331748 0.308811 0.280478 
0.331751 0.325034 0.048822 
0.331758 0.315214 0.166570 
0.331767 0.308828 0.235959 
0.331771 0.308832 0.248677 
0.331774 0.299469 0.330727 
0.331784 0.318482 0.171958 
0.331788 0.299481 0.295844 
0.331799 0.315252 0.203781 
0.331800 0.293390 0.398807 
0.331819 0.321792 0.143533 
0.331825 0.321798 0.050630 
0.331826 0.321799 0.073218 
0.331829 0.312068 0.227121 
0.331852 0.321824 0.058816 
0.331858 0.318553 0.162904 
0.331867 0.308921 0.233522 
0.331870 0.318565 0.052420 
0.331900 0.325180 0.046795 
0.331903 0.299585 0.381881 
0.331914 0.318607 0.174317 
0.331934 0.290498 0.338477 
0.331935 0.328558 0.086569 
0.331947 0.299625 0.321927 
0.331951 0.312183 0.222260 
0.331957 0.309005 0.231087 
0.331969 0.296578 0.344684 
0.331979 0.315423 0.118436 
0.331980 0.321949 0.048613 
0.331991 0.299664 0.337022 
0.332004 0.299676 0.378634 
0.332013 0.321981 0.083640 
0.332016 0.321983 0.152517 
0.332018 0.321985 0.139205 
0.332032 0.318720 0.050412 
0.332033 0.322000 0.056798 
0.332036 0.318724 0.176682 
0.332059 0.296658 0.387080 
0.332071 0.290618 0.344776 
0.332078 0.296676 0.360606 
0.332085 0.309125 0.254089 
0.332122 0.299783 0.293342 
0.332130 0.322093 0.046594 
0.332132 0.322095 0.098349 
0.332150 0.293700 0.392276 
0.332161 0.299818 0.372159 
0.332173 0.309207 0.223804 
0.332176 0.318858 0.167596 
0.332177 0.290711 0.397469 
0.332183 0.315618 0.173609 
0.332192 0.293737 0.375403 
0.332208 0.322169 0.054779 
0.332225 0.309255 0.176513 
0.332244 0.299893 0.328182 
0.332248 0.322208 0.106858 
0.332253 0.309281 0.251622 
0.332260 0.299907 0.365709 
0.332266 0.322225 0.141514 
0.332267 0.309293 0.197387 
0.332268 0.315698 0.192202 
0.332272 0.322232 0.081621 
0.332282 0.315712 0.164572 
0.332285 0.309310 0.143142 
0.332288 0.296863 0.275742 
0.332301 0.299944 0.359285 
0.332305 0.312516 0.184313 
0.332306 0.309330 0.238866 
0.332323 0.322281 0.092089 
0.332330 0.293859 0.368962 
0.332330 0.309353 0.202154 
0.332350 0.315776 0.116437 
0.332368 0.319043 0.160895 
0.332377 0.322333 0.052760 
0.332377 0.293901 0.365750 
0.332382 0.300018 0.319392 
0.332392 0.293914 0.349793 
0.332409 0.315832 0.251563 
0.332420 0.309437 0.286557 
0.332436 0.322391 0.096329 
0.332443 0.322397 0.126262 
0.332455 0.315876 0.213851 
0.332476 0.297031 0.374108 
0.332490 0.322443 0.150498 
0.332517 0.309527 0.233980 
0.332522 0.309531 0.145427 
0.332539 0.322490 0.050739 
0.332541 0.309549 0.183563 
0.332548 0.312744 0.225131 
0.332562 0.309568 0.246697 
0.332564 0.315979 0.249083 
0.332564 0.322515 0.058942 
0.332579 0.322529 0.104838 
0.332583 0.300199 0.337624 
0.332586 0.329202 0.061615 
0.332605 0.291085 0.342235 
0.332607 0.297149 0.348470 
0.332608 0.322558 0.090069 
0.332609 0.322558 0.109106 
0.332611 0.309614 0.123894 
0.332614 0.300227 0.313752 
0.332634 0.297173 0.364443 
0.332654 0.312844 0.220270 
0.332655 0.309655 0.172192 
0.332658 0.297194 0.361235 
0.332667 0.297202 0.358034 
0.332668 0.319331 0.095922 
0.332671 0.294161 0.379283 
0.332671 0.291143 0.367683 
0.332678 0.300285 0.299458 
0.332692 0.309689 0.229106 
0.332701 0.309698 0.244239 
0.332711 0.294196 0.392939 
0.332720 0.322665 0.083818 
0.332729 0.316136 0.171608 
0.332739 0.309733 0.141160 
0.332746 0.322691 0.056920 
0.332750 0.309744 0.147716 
0.332754 0.300353 0.410764 
0.332761 0.312945 0.208182 
0.332765 0.309758 0.226674 
0.332771 0.322715 0.077579 
0.332786 0.309777 0.174531 
0.332790 0.300386 0.369567 
0.332832 0.309820 0.241784 
0.332833 0.313013 0.168565 
0.332835 0.322777 0.124240 
0.332871 0.319526 0.158884 
0.332885 0.309869 0.221822 
0.332888 0.313064 0.182320 
0.332921 0.322861 0.054897 
0.332932 0.322871 0.164239 
0.332942 0.294400 0.347238 
0.332956 0.329568 0.057529 
0.332959 0.322897 0.148475 
0.332973 0.309951 0.200171 
0.332979 0.322917 0.081795 
0.332989 0.294442 0.363178 
0.332994 0.319643 0.077249 
0.333004 0.309980 0.121910 
0.333006 0.294457 0.386424 
0.333013 0.316406 0.149262 
0.333014 0.294464 0.356782 
0.333014 0.309989 0.212160 
0.333020 0.309995 0.179225 
0.333024 0.309999 0.209755 
0.333043 0.316435 0.089305 
0.333054 0.310026 0.249639 
0.333061 0.310033 0.117685 
0.333065 0.310037 0.236883 
0.333079 0.300647 0.335067 
0.333087 0.297578 0.342738 
0.333100 0.294540 0.396871 
0.333124 0.310092 0.181579 
0.333124 0.313287 0.078585 
0.333128 0.316516 0.211848 
0.333130 0.316517 0.158233 
0.333157 0.316543 0.268014 
0.333173 0.300732 0.272362 
0.333182 0.297662 0.273795 
0.333187 0.310150 0.139175 
0.333202 0.310164 0.170207 
0.333221 0.323152 0.122216 
0.333227 0.297702 0.352270 
0.333232 0.297707 0.301411 
0.333232 0.323162 0.079770 
0.333235 0.291637 0.388360 
0.333244 0.323174 0.073531 
0.333253 0.316634 0.144947 
0.333264 0.313418 0.194200 
0.333278 0.323207 0.117914 
0.333290 0.300837 0.277847 
0.333299 0.291693 0.349174 
0.333300 0.329908 0.053439 
0.333303 0.300849 0.326226 
0.333305 0.319942 0.060832 
0.333311 0.316689 0.160566 
0.333313 0.313464 0.196589 
0.333315 0.297781 0.385133 
0.333322 0.316700 0.087300 
0.333325 0.291715 0.361913 
0.333340 0.310293 0.172546 
0.333351 0.297813 0.290298 
0.333355 0.313503 0.177963 
0.333371 0.313519 0.076589 
0.333406 0.313551 0.203781 
0.333408 0.316782 0.081100 
0.333414 0.300949 0.317435 
0.333415 0.294819 0.314549 
0.333416 0.294820 0.373465 
0.333419 0.313564 0.211010 
0.333419 0.313564 0.206187 
0.333429 0.294831 0.390338 
0.333432 0.330039 0.074313 
0.333434 0.310380 0.115699 
0.333441 0.300974 0.363752 
0.333443 0.323367 0.162214 
0.333461 0.300992 0.357329 
0.333464 0.313606 0.180325 
0.333469 0.310413 0.174890 
0.333471 0.323394 0.071505 
0.333478 0.310422 0.242253 
0.333479 0.323402 0.077744 
0.333479 0.291851 0.395539 
0.333481 0.294877 0.344684 
0.333483 0.316852 0.162904 
0.333486 0.310429 0.224689 
0.333494 0.320123 0.058816 
0.333515 0.310455 0.193418 
0.333532 0.297975 0.378634 
0.333533 0.294923 0.367022 
0.333534 0.297977 0.313178 
0.333543 0.310481 0.222260 
0.333550 0.313687 0.159906 
0.333569 0.294955 0.363811 
0.333571 0.294957 0.387080 
0.333589 0.313723 0.080753 
0.333590 0.310526 0.219835 
0.333595 0.316959 0.085293 
0.333601 0.323520 0.120189 
0.333609 0.310543 0.198184 
0.333613 0.316976 0.066731 
0.333628 0.301142 0.311794 
0.333628 0.310561 0.137188 
0.333634 0.323552 0.055015 
0.333645 0.323562 0.115887 
0.333646 0.301159 0.280863 
0.333647 0.291998 0.392276 
0.333655 0.310586 0.293214 
0.333659 0.313789 0.171258 
0.333666 0.310596 0.150325 
0.333668 0.310598 0.202968 
0.333671 0.301181 0.202490 
0.333690 0.298116 0.372159 
0.333691 0.310619 0.207767 
0.333692 0.301200 0.291932 
0.333692 0.301200 0.286386 
0.333692 0.323609 0.069477 
0.333698 0.295069 0.383828 
0.333701 0.310629 0.179592 
0.333719 0.323635 0.075717 
0.333739 0.313864 0.187437 
0.333739 0.317096 0.104176 
0.333743 0.310667 0.168219 
0.333761 0.295125 0.303357 
0.333767 0.292102 0.372179 
0.333782 0.298199 0.349701 
0.333789 0.310710 0.132925 
0.333795 0.317149 0.207419 
0.333795 0.317149 0.209841 
0.333800 0.310721 0.113710 
0.333808 0.301305 0.272880 
0.333819 0.310738 0.234895 
0.333821 0.317174 0.064722 
0.333828 0.292156 0.368962 
0.333829 0.298240 0.356084 
0.333831 0.301325 0.314899 
0.333841 0.295195 0.335818 
0.333848 0.310766 0.247651 
0.333862 0.317213 0.083284 
0.333873 0.301363 0.264941 
0.333875 0.292197 0.365750 
0.333876 0.310792 0.152630 
0.333880 0.330483 0.070216 
0.333907 0.323816 0.067448 
0.333908 0.295254 0.377342 
0.333918 0.314032 0.175965 
0.333948 0.323857 0.160186 
0.333966 0.323874 0.050957 
0.333974 0.320584 0.130569 
0.333984 0.310892 0.186680 
0.334001 0.295337 0.306431 
0.334018 0.317361 0.123463 
0.334042 0.314149 0.216276 
0.334051 0.314158 0.201782 
0.334061 0.310964 0.189052 
0.334063 0.310966 0.135198 
0.334065 0.317406 0.102166 
0.334066 0.314172 0.213851 
0.334081 0.301551 0.408804 
0.334086 0.301556 0.262472 
0.334094 0.330695 0.068166 
0.334096 0.320701 0.137186 
0.334097 0.298480 0.305046 
0.334114 0.298495 0.337624 
0.334115 0.324018 0.065418 
0.334120 0.324023 0.129083 
0.334122 0.317460 0.114919 
0.334122 0.324026 0.048926 
0.334129 0.311027 0.191428 
0.334137 0.314238 0.127212 
0.334143 0.311040 0.148335 
0.334145 0.298523 0.313752 
0.334160 0.311056 0.111719 
0.334161 0.301623 0.333106 
0.334172 0.317507 0.147561 
0.334173 0.295489 0.361235 
0.334177 0.295492 0.354839 
0.334187 0.301647 0.275885 
0.334199 0.298571 0.340786 
0.334201 0.311094 0.222698 
0.334209 0.298580 0.299458 
0.334213 0.317546 0.130026 
0.334223 0.289497 0.351726 
0.334227 0.320828 0.117668 
0.334239 0.311129 0.196194 
0.334239 0.289511 0.354904 
0.334240 0.289512 0.358088 
0.334249 0.311139 0.240263 
0.334249 0.311139 0.220270 
0.334256 0.324156 0.135724 
0.334263 0.311152 0.261016 
0.334263 0.298628 0.253604 
0.334268 0.301720 0.239436 
0.334272 0.311160 0.177601 
0.334276 0.301727 0.281393 
0.334277 0.311165 0.166228 
0.334287 0.301737 0.267923 
0.334289 0.311176 0.217845 
0.334293 0.298654 0.288345 
0.334303 0.330901 0.066114 
0.334313 0.311198 0.200977 
0.334316 0.324214 0.063387 
0.334320 0.311205 0.215423 
0.334324 0.317651 0.125735 
0.334328 0.298685 0.347133 
0.334330 0.314421 0.074752 
0.334351 0.311234 0.205776 
0.334353 0.311236 0.210592 
0.334361 0.330959 0.072418 
0.334366 0.301808 0.210047 
0.334369 0.301811 0.207661 
0.334376 0.317701 0.079262 
0.334382 0.320976 0.128548 
0.334382 0.311263 0.179958 
0.334385 0.317710 0.100154 
0.334405 0.317729 0.121452 
0.334428 0.324322 0.075877 
0.334429 0.311307 0.168565 
0.334439 0.301874 0.315472 
0.334440 0.295725 0.312605 
0.334480 0.321070 0.098557 
0.334484 0.311358 0.182320 
0.334490 0.292735 0.363178 
0.334496 0.317815 0.132312 
0.334504 0.331101 0.064061 
0.334510 0.292753 0.359976 
0.334512 0.324403 0.061354 
0.334514 0.311385 0.109726 
0.334516 0.324408 0.053099 
0.334521 0.324412 0.127051 
0.334524 0.321113 0.135164 
0.334537 0.311407 0.090919 
0.334538 0.314616 0.125209 
0.334542 0.331139 0.055720 
0.334549 0.298884 0.280333 
0.334550 0.314627 0.192588 
0.334550 0.298885 0.311224 
0.334559 0.298892 0.296948 
0.334564 0.295835 0.374750 
0.334565 0.314641 0.072749 
0.334565 0.298898 0.383180 
0.334577 0.311445 0.184687 
0.334587 0.311453 0.139760 
0.334595 0.321180 0.115645 
0.334599 0.298928 0.285849 
0.334602 0.292833 0.396871 
0.334605 0.295870 0.342738 
0.334613 0.311478 0.146341 
0.334616 0.302034 0.284422 
0.334621 0.317934 0.128014 
0.334624 0.317936 0.077249 
0.334634 0.302051 0.289968 
0.334636 0.311499 0.245659 
0.334650 0.289867 0.324634 
0.334662 0.311523 0.187059 
0.334666 0.314736 0.219136 
0.334678 0.324565 0.133691 
0.334685 0.299005 0.323095 
0.334689 0.302100 0.270916 
0.334689 0.314758 0.199779 
0.334701 0.324587 0.059320 
0.334737 0.311593 0.189434 
0.334744 0.314810 0.158233 
0.334750 0.295999 0.301411 
0.334783 0.321361 0.126525 
0.334786 0.289985 0.349174 
0.334798 0.293005 0.286181 
0.334804 0.311656 0.191815 
0.334804 0.311656 0.164234 
0.334811 0.324694 0.129350 
0.334820 0.302218 0.276407 
0.334824 0.299129 0.277847 
0.334833 0.318135 0.069034 
0.334836 0.311685 0.175607 
0.334837 0.299141 0.326226 
0.334839 0.311688 0.148644 
0.334839 0.293040 0.376696 
0.334839 0.293041 0.338365 
0.334861 0.311709 0.107731 
0.334862 0.311710 0.194200 
0.334875 0.331468 0.051610 
0.334880 0.302272 0.222477 
0.334883 0.324764 0.057286 
0.334889 0.331482 0.059951 
0.334895 0.299193 0.283355 
0.334898 0.299195 0.370203 
0.334898 0.299195 0.294439 
0.334911 0.318209 0.130298 
0.334914 0.311758 0.131210 
0.334915 0.324795 0.125016 
0.334920 0.299215 0.288886 
0.334925 0.302313 0.268435 
0.334929 0.296158 0.406115 
0.334930 0.302318 0.220068 
0.334932 0.293122 0.390338 
0.334933 0.314987 0.123204 
0.334936 0.296163 0.333871 
0.334937 0.287131 0.400736 
0.334937 0.302324 0.293021 
0.334946 0.321518 0.133139 
0.334950 0.311791 0.218275 
0.334951 0.299242 0.269886 
0.334954 0.311795 0.177963 
0.334955 0.321526 0.113621 
0.334956 0.321527 0.109335 
0.334965 0.311805 0.166570 
0.334971 0.302355 0.217663 
0.334973 0.302357 0.177759 
0.334975 0.299264 0.329365 
0.334982 0.311821 0.215850 
0.334985 0.293168 0.344684 
0.334987 0.324864 0.046995 
0.335013 0.311850 0.238268 
0.335018 0.311855 0.206187 
0.335023 0.311859 0.208597 
0.335030 0.311866 0.137764 
0.335032 0.331623 0.049554 
0.335039 0.302416 0.205694 
0.335041 0.302417 0.237469 
0.335057 0.321624 0.048822 
0.335091 0.318380 0.079432 
0.335093 0.311925 0.259021 
0.335094 0.324968 0.131655 
0.335102 0.293271 0.357408 
0.335126 0.318414 0.058816 
0.335159 0.315200 0.190582 
0.335163 0.299432 0.311794 
0.335178 0.321740 0.124499 
0.335181 0.299448 0.297500 
0.335182 0.331772 0.047496 
0.335184 0.302547 0.279425 
0.335184 0.318469 0.108877 
0.335194 0.312019 0.133485 
0.335202 0.312026 0.105734 
0.335209 0.299473 0.335666 
0.335213 0.325084 0.127314 
0.335230 0.325099 0.053213 
0.335232 0.284423 0.388963 
0.335237 0.302594 0.331139 
0.335244 0.302601 0.284956 
0.335248 0.299508 0.249198 
0.335251 0.321810 0.120189 
0.335255 0.321814 0.063252 
0.335256 0.290392 0.372179 
0.335256 0.312076 0.185062 
0.335283 0.293429 0.320759 
0.335297 0.321854 0.107308 
0.335307 0.318586 0.094108 
0.335309 0.318587 0.056798 
0.335310 0.321867 0.111594 
0.335310 0.312127 0.146646 
0.335315 0.293457 0.380582 
0.335316 0.302666 0.255574 
0.335320 0.318598 0.128281 
0.335321 0.315352 0.121197 
0.335325 0.293466 0.404770 
0.335328 0.325194 0.067735 
0.335330 0.312145 0.129212 
0.335339 0.318616 0.077414 
0.335339 0.290464 0.346623 
0.335351 0.296530 0.359285 
0.335380 0.290499 0.349793 
0.335389 0.312200 0.066444 
0.335393 0.325258 0.051174 
0.335393 0.312204 0.173609 
0.335414 0.312223 0.189817 
0.335423 0.293552 0.292246 
0.335438 0.293565 0.338970 
0.335441 0.299680 0.326814 
0.335451 0.302788 0.242819 
0.335459 0.296626 0.310654 
0.335460 0.318731 0.062982 
0.335467 0.312272 0.135766 
0.335485 0.318755 0.054779 
0.335493 0.312297 0.164572 
0.335493 0.299727 0.161530 
0.335496 0.293615 0.374108 
0.335502 0.302834 0.299155 
0.335525 0.318793 0.106858 
0.335526 0.299756 0.283889 
0.335535 0.302863 0.282453 
0.335546 0.302873 0.175789 
0.335546 0.299774 0.244311 
0.335550 0.325410 0.049135 
0.335557 0.299784 0.318012 
0.335560 0.299786 0.309263 
0.335563 0.302889 0.268946 
0.335567 0.322113 0.122470 
0.335576 0.302901 0.261006 
0.335598 0.312394 0.064444 
0.335602 0.318866 0.092089 
0.335602 0.296752 0.322511 
0.335609 0.325467 0.125275 
0.335610 0.312406 0.218706 
0.335629 0.293732 0.348470 
0.335631 0.322175 0.105279 
0.335655 0.318917 0.052760 
0.335656 0.293755 0.364443 
0.335668 0.312460 0.213851 
0.335673 0.302988 0.215692 
0.335683 0.293780 0.354839 
0.335689 0.293784 0.358034 
0.335701 0.325556 0.047095 
0.335702 0.290778 0.392939 
0.335703 0.315712 0.119187 
0.335718 0.290792 0.322699 
0.335722 0.296858 0.340786 
0.335722 0.318980 0.126262 
0.335725 0.299934 0.275885 
0.335731 0.312518 0.138052 
0.335733 0.299942 0.321134 
0.335734 0.293824 0.309514 
0.335734 0.293824 0.284237 
0.335748 0.293837 0.289754 
0.335757 0.296889 0.325638 
0.335773 0.293858 0.384481 
0.335773 0.303079 0.180468 
0.335774 0.303079 0.258535 
0.335800 0.312583 0.062443 
0.335807 0.303109 0.235498 
0.335814 0.300013 0.281393 
0.335823 0.312604 0.292297 
0.335825 0.312605 0.087113 
0.335836 0.315837 0.174672 
0.335853 0.300048 0.292477 
0.335857 0.300052 0.286924 
0.335872 0.300065 0.214831 
0.335882 0.290934 0.344071 
0.335883 0.303178 0.291050 
0.335889 0.319139 0.132864 
0.335890 0.319139 0.090069 
0.335897 0.312673 0.133765 
0.335897 0.297013 0.328774 
0.335902 0.293971 0.394927 
0.335917 0.312692 0.257021 
0.335919 0.297033 0.363123 
0.335945 0.312717 0.171608 
0.335960 0.322490 0.103248 
0.335961 0.303248 0.271946 
0.335982 0.300164 0.273399 
0.336016 0.312783 0.162570 
0.336016 0.300194 0.159566 
0.336024 0.297125 0.331917 
0.336024 0.300201 0.257542 
0.336053 0.294103 0.324463 
0.336056 0.300230 0.247234 
0.336056 0.322583 0.069625 
0.336070 0.300242 0.301125 
0.336079 0.316065 0.117176 
0.336082 0.322608 0.075877 
0.336100 0.312861 0.085111 
0.336113 0.294156 0.342738 
0.336119 0.319357 0.124240 
0.336140 0.303410 0.253600 
0.336142 0.312901 0.125209 
0.336145 0.300310 0.295536 
0.336166 0.300328 0.318590 
0.336171 0.319407 0.088046 
0.336190 0.319425 0.119939 
0.336210 0.285253 0.393541 
0.336211 0.294241 0.388392 
0.336211 0.303474 0.223362 
0.336227 0.312980 0.221573 
0.336231 0.297308 0.233651 
0.336234 0.303495 0.240845 
0.336248 0.303507 0.308423 
0.336261 0.288266 0.398807 
0.336264 0.294288 0.361864 
0.336272 0.322790 0.067592 
0.336281 0.322799 0.101216 
0.336296 0.319525 0.075556 
0.336299 0.300446 0.333701 
0.336306 0.303560 0.329165 
0.336308 0.303561 0.218532 
0.336317 0.322834 0.073844 
0.336321 0.313068 0.131761 
0.336323 0.300468 0.304206 
0.336333 0.291324 0.376696 
0.336333 0.294348 0.318811 
0.336338 0.300482 0.242345 
0.336343 0.294357 0.385133 
0.336348 0.313092 0.211848 
0.336358 0.303607 0.201747 
0.336363 0.297425 0.326226 
0.336368 0.313111 0.083106 
0.336368 0.303616 0.213717 
0.336398 0.313140 0.070744 
0.336415 0.326249 0.047196 
0.336418 0.303661 0.259031 
0.336431 0.303672 0.266971 
0.336436 0.313175 0.287222 
0.336446 0.288425 0.395539 
0.336446 0.303686 0.280478 
0.336447 0.319669 0.086022 
0.336448 0.316412 0.115161 
0.336468 0.303706 0.297181 
0.336469 0.303707 0.311529 
0.336473 0.313209 0.144947 
0.336475 0.300604 0.260506 
0.336479 0.291451 0.344684 
0.336480 0.291452 0.370240 
0.336481 0.322991 0.065558 
0.336500 0.303735 0.286023 
0.336522 0.297566 0.357329 
0.336523 0.285518 0.387041 
0.336531 0.291497 0.367022 
0.336532 0.313264 0.160566 
0.336532 0.300655 0.157598 
0.336532 0.319749 0.073531 
0.336547 0.323054 0.071809 
0.336548 0.294536 0.337022 
0.336563 0.300683 0.307297 
0.336564 0.294550 0.313178 
0.336566 0.303794 0.233522 
0.336566 0.319782 0.117914 
0.336567 0.300687 0.212864 
0.336615 0.297648 0.275362 
0.336619 0.303842 0.246220 
0.336621 0.313347 0.068738 
0.336649 0.294625 0.375393 
0.336651 0.294627 0.402822 
0.336651 0.303871 0.264487 
0.336653 0.297682 0.320553 
0.336656 0.313379 0.074913 
0.336659 0.291607 0.397537 
0.336681 0.323183 0.427654 
0.336694 0.313415 0.188194 
0.336694 0.300800 0.265956 
0.336710 0.319918 0.146450 
0.336719 0.303932 0.277975 
0.336721 0.294688 0.372159 
0.336739 0.313456 0.129755 
0.336740 0.303951 0.228656 
0.336753 0.313470 0.290292 
0.336761 0.319967 0.071505 
0.336770 0.294730 0.346520 
0.336770 0.326593 0.080617 
0.336779 0.291711 0.320759 
0.336779 0.294738 0.389048 
0.336808 0.316751 0.108877 
0.336811 0.316753 0.113145 
0.336813 0.304017 0.226228 
0.336816 0.316759 0.132588 
0.336822 0.304026 0.289073 
0.336834 0.291759 0.394264 
0.336845 0.294796 0.352889 
0.336851 0.313561 0.156226 
0.336857 0.300945 0.245265 
0.336861 0.294810 0.356084 
0.336892 0.313599 0.072905 
0.336909 0.291824 0.377342 
0.336916 0.316852 0.152517 
0.336929 0.313634 0.121197 
0.336932 0.304124 0.221383 
0.336933 0.313637 0.142940 
0.336936 0.320133 0.115887 
0.336952 0.316886 0.145849 
