# .PCD v.7 - Point Cloud Data file format
VERSION .7
FIELDS x y z
SIZE 4 4 4
TYPE F F F
COUNT 1 1 1
WIDTH 1594
HEIGHT 1
POINTS 1594
DATA ascii
0.549916 -0.127037 0.153881 
0.549917 -0.236396 0.211976 
0.549918 -0.295385 0.284488 
0.549923 -0.169277 0.186963 
0.549923 -0.194232 0.195150 
0.549923 -0.184794 0.188508 
0.549935 -0.118186 0.145479 
0.549938 -0.200586 0.207302 
0.549939 -0.270501 0.247623 
0.549939 -0.141944 0.152194 
0.549944 -0.127044 0.145980 
0.549948 -0.135963 0.178627 
0.549950 -0.256674 0.229943 
0.549952 -0.200591 0.221794 
0.549963 -0.160096 0.153488 
0.549968 -0.200597 0.210192 
0.549969 -0.376495 0.300244 
0.549970 -0.336558 0.297257 
0.549975 -0.178573 0.187890 
0.549975 -0.200599 0.218888 
0.549979 -0.147969 0.168713 
0.549982 -0.356204 0.305562 
0.549983 -0.200602 0.213087 
0.549986 -0.200603 0.215985 
0.549992 -0.249877 0.228880 
0.549994 -0.325083 0.281126 
0.549996 -0.138963 0.176154 
0.550004 -0.295431 0.261812 
0.550006 -0.256700 0.226943 
0.550009 -0.138966 0.154670 
0.550016 -0.068980 0.229618 
0.550021 -0.127061 0.164547 
0.550029 -0.118206 0.163988 
0.550034 -0.376539 0.307305 
0.550035 -0.360243 0.317154 
0.550049 -0.100666 0.157715 
0.550055 -0.109413 0.155541 
0.550057 -0.243151 0.212977 
0.550058 -0.253307 0.241612 
0.550059 -0.360259 0.310124 
0.550071 -0.336620 0.311071 
0.550074 -0.376566 0.354460 
0.550079 -0.200637 0.116477 
0.550080 -0.288263 0.254082 
0.550098 -0.136000 0.167861 
0.550107 -0.270584 0.260235 
0.550113 -0.340524 0.294855 
0.550114 -0.281148 0.243365 
0.550118 -0.148007 0.185109 
0.550118 -0.068993 0.261494 
0.550130 -0.109428 0.166157 
0.550140 -0.094879 0.168026 
0.550143 -0.124130 0.135406 
0.550146 -0.313887 0.278709 
0.550160 -0.340553 0.322609 
0.550164 -0.325184 0.267999 
0.550169 -0.210287 0.199944 
0.550169 -0.295520 0.271556 
0.550171 -0.310184 0.251988 
0.550172 -0.191162 0.200558 
0.550175 -0.151043 0.142258 
0.550183 -0.194324 0.206635 
0.550187 -0.172443 0.192929 
0.550188 -0.148026 0.171485 
0.550196 -0.118242 0.156075 
0.550196 -0.223298 0.204465 
0.550206 -0.148030 0.160701 
0.550216 -0.325214 0.287922 
0.550216 -0.340588 0.301758 
0.550219 -0.223307 0.224983 
0.550230 -0.184897 0.197050 
0.550231 -0.356365 0.295316 
0.550232 -0.191182 0.203427 
0.550238 -0.360377 0.292859 
0.550239 -0.184900 0.177478 
0.550240 -0.194344 0.215293 
0.550250 -0.148042 0.187906 
0.550251 -0.127114 0.167293 
0.550255 -0.325238 0.277937 
0.550258 -0.360390 0.327964 
0.550259 -0.340614 0.308685 
0.550262 -0.163240 0.178230 
0.550269 -0.236547 0.242004 
0.550269 -0.223328 0.210307 
0.550270 -0.352409 0.304716 
0.550271 -0.133061 0.173092 
0.550281 -0.372590 0.364598 
0.550282 -0.313965 0.265679 
0.550282 -0.210330 0.205735 
0.550283 -0.139036 0.157411 
0.550286 -0.223334 0.213234 
0.550289 -0.191202 0.180898 
0.550289 -0.223336 0.216165 
0.550291 -0.376715 0.296927 
0.550293 -0.270676 0.257171 
0.550295 -0.336757 0.294026 
0.550295 -0.175572 0.196086 
0.550296 -0.299224 0.259468 
0.550319 -0.210344 0.208637 
0.550332 -0.239916 0.227463 
0.550333 -0.356431 0.302281 
0.550340 -0.191220 0.214947 
0.550341 -0.352455 0.287570 
0.550342 -0.274203 0.245317 
0.550354 -0.121224 0.164268 
0.550355 -0.094916 0.170753 
0.550361 -0.281274 0.256024 
0.550369 -0.184944 0.202768 
0.550370 -0.178702 0.199256 
0.550377 -0.325310 0.294745 
0.550383 -0.181822 0.166217 
0.550393 -0.184952 0.225807 
0.550396 -0.220108 0.201229 
0.550398 -0.295643 0.268434 
0.550400 -0.314032 0.275544 
0.550407 -0.154138 0.185727 
0.550410 -0.376796 0.347244 
0.550411 -0.181831 0.202438 
0.550418 -0.109485 0.150382 
0.550419 -0.184961 0.205633 
0.550427 -0.340718 0.291619 
0.550429 -0.376809 0.336232 
0.550430 -0.239959 0.218559 
0.550432 -0.360504 0.313851 
0.550438 -0.256902 0.242353 
0.550442 -0.229982 0.229005 
0.550443 -0.175619 0.201779 
0.550446 -0.071895 0.193866 
0.550449 -0.295670 0.230522 
0.550452 -0.148097 0.163461 
0.550455 -0.277782 0.249122 
0.550456 -0.340736 0.271480 
0.550460 -0.133107 0.175857 
0.550462 -0.127163 0.159344 
0.550462 -0.181848 0.205299 
0.550463 -0.133107 0.154407 
0.550466 -0.118300 0.158801 
0.550466 -0.368625 0.316004 
0.550472 -0.364565 0.311404 
0.550478 -0.368632 0.308943 
0.550478 -0.184981 0.211376 
0.550480 -0.243338 0.240129 
0.550481 -0.267281 0.247249 
0.550483 -0.317821 0.327388 
0.550487 -0.200786 0.193230 
0.550489 -0.160249 0.183536 
0.550495 -0.194434 0.129439 
0.550505 -0.325386 0.284724 
0.550506 -0.288486 0.244831 
0.550508 -0.124212 0.138104 
0.550512 -0.136102 0.173384 
0.550517 -0.074769 0.183209 
0.550517 -0.270786 0.266771 
0.550521 -0.220158 0.221689 
0.550521 -0.256941 0.257891 
0.550527 -0.281359 0.252946 
0.550529 -0.220161 0.209973 
0.550536 -0.402229 0.282430 
0.550540 -0.207209 0.217023 
0.550542 -0.207209 0.214113 
0.550543 -0.220167 0.218754 
0.550545 -0.115375 0.174671 
0.550546 -0.288507 0.260651 
0.550547 -0.220168 0.212896 
0.550549 -0.210432 0.185844 
0.550551 -0.118318 0.143023 
0.550551 -0.200809 0.113921 
0.550558 -0.340800 0.298513 
0.550562 -0.118321 0.150899 
0.550563 -0.100760 0.163148 
0.550565 -0.127187 0.151417 
0.550565 -0.175658 0.210350 
0.550566 -0.230033 0.211308 
0.550575 -0.172565 0.212870 
0.550578 -0.230038 0.217191 
0.550578 -0.230039 0.214247 
0.550580 -0.306714 0.290558 
0.550581 -0.200820 0.196102 
0.550585 -0.321645 0.283911 
0.550587 -0.310418 0.291395 
0.550594 -0.200825 0.233830 
0.550601 -0.160282 0.150987 
0.550606 -0.250155 0.256718 
0.550607 -0.148138 0.155460 
0.550609 -0.376932 0.329072 
0.550611 -0.178780 0.168745 
0.550613 -0.163344 0.170133 
0.550613 -0.270833 0.223348 
0.550614 -0.139119 0.187280 
0.550616 -0.317898 0.320478 
0.550619 -0.352633 0.301444 
0.550625 -0.270839 0.251052 
0.550645 -0.256998 0.236318 
0.550656 -0.352657 0.315416 
0.550661 -0.200850 0.198979 
0.550671 -0.314187 0.282284 
0.550679 -0.310470 0.281470 
0.550683 -0.314194 0.319578 
0.550685 -0.148159 0.166226 
0.550697 -0.169515 0.184451 
0.550700 -0.191345 0.189436 
0.550709 -0.329317 0.299222 
0.550712 -0.136152 0.154670 
0.550716 -0.127222 0.162083 
0.550723 -0.118355 0.161531 
0.550725 -0.207278 0.185544 
0.550727 -0.115413 0.177424 
0.550728 -0.233416 0.238647 
0.550728 -0.377014 0.321933 
0.550728 -0.257037 0.233306 
0.550730 -0.263930 0.228344 
0.550731 -0.406706 0.232410 
0.550732 -0.270891 0.263697 
0.550732 -0.181937 0.185670 
0.550733 -0.295823 0.275084 
0.550736 -0.148173 0.179830 
0.550740 -0.133174 0.157144 
0.550746 -0.142152 0.171197 
0.550750 -0.178825 0.185365 
0.550762 -0.377037 0.373804 
0.550771 -0.303141 0.303251 
0.550771 -0.329354 0.306102 
0.550778 -0.263953 0.225330 
0.550778 -0.250233 0.232231 
0.550778 -0.406742 0.229103 
0.550782 -0.325549 0.281528 
0.550783 -0.200894 0.204746 
0.550786 -0.377054 0.314817 
0.550786 -0.133186 0.167861 
0.550789 -0.074806 0.188693 
0.550791 -0.200897 0.225063 
0.550794 -0.121320 0.159072 
0.550801 -0.223543 0.237165 
0.550804 -0.136175 0.165387 
0.550805 -0.344860 0.309976 
0.550805 -0.321774 0.270785 
0.550810 -0.281504 0.262580 
0.550813 -0.127244 0.138341 
0.550813 -0.344866 0.285959 
0.550817 -0.281507 0.246800 
0.550821 -0.360758 0.286311 
0.550825 -0.352765 0.270949 
0.550825 -0.230142 0.244236 
0.550835 -0.109568 0.163708 
0.550840 -0.263983 0.216315 
0.550852 -0.200919 0.210530 
0.550853 -0.220291 0.242722 
0.550854 -0.207327 0.188414 
0.550854 -0.236799 0.248370 
0.550855 -0.368885 0.312684 
0.550856 -0.118384 0.153618 
0.550865 -0.172655 0.187581 
0.550866 -0.200924 0.213429 
0.550869 -0.372989 0.335332 
0.550878 -0.148211 0.158213 
0.550881 -0.175759 0.187890 
0.550893 -0.148215 0.182622 
0.550893 -0.329427 0.289155 
0.550894 -0.325615 0.305241 
0.550896 -0.377129 0.332872 
0.550896 -0.250287 0.226242 
0.550898 -0.257116 0.224292 
0.550903 -0.270975 0.244947 
0.550919 -0.278016 0.236890 
0.550921 -0.377146 0.343872 
0.550936 -0.142201 0.190391 
0.550938 -0.243540 0.249518 
0.550943 -0.318087 0.324157 
0.550944 -0.139203 0.154933 
0.550952 -0.288720 0.267250 
0.550955 -0.352848 0.298173 
0.550963 -0.148234 0.150223 
0.550973 -0.377182 0.358785 
0.550975 -0.253730 0.270081 
0.550977 -0.295954 0.271955 
0.550985 -0.172693 0.190412 
0.551001 -0.288746 0.286790 
0.551002 -0.163459 0.175723 
0.551004 -0.281603 0.259491 
0.551004 -0.210606 0.232370 
0.551004 -0.341076 0.316074 
0.551005 -0.069104 0.227197 
0.551005 -0.295969 0.259085 
0.551010 -0.253746 0.238967 
0.551010 -0.178910 0.174367 
0.551012 -0.267539 0.253727 
0.551036 -0.148254 0.185418 
0.551040 -0.185169 0.194516 
0.551045 -0.325704 0.278335 
0.551045 -0.329518 0.296001 
0.551049 -0.121377 0.161807 
0.551051 -0.306977 0.294151 
0.551053 -0.310681 0.294996 
0.551054 -0.281629 0.240667 
0.551056 -0.109612 0.147932 
0.551057 -0.288775 0.251369 
0.551070 -0.109615 0.166441 
0.551071 -0.337232 0.294441 
0.551072 -0.194638 0.206968 
0.551076 -0.310694 0.265292 
0.551088 -0.299654 0.282583 
0.551090 -0.250375 0.247644 
0.551094 -0.163487 0.164839 
0.551101 -0.178939 0.193881 
0.551103 -0.194648 0.209854 
0.551114 -0.223670 0.207713 
0.551115 -0.210648 0.203163 
0.551120 -0.194655 0.212745 
0.551121 -0.318190 0.510761 
0.551124 -0.223674 0.222390 
0.551124 -0.191492 0.203757 
0.551128 -0.271086 0.238855 
0.551131 -0.373166 0.368949 
0.551134 -0.303341 0.300075 
0.551134 -0.127319 0.156877 
0.551136 -0.377293 0.304394 
0.551136 -0.329572 0.302872 
0.551142 -0.223682 0.210640 
0.551148 -0.223684 0.219446 
0.551152 -0.210663 0.250466 
0.551164 -0.210667 0.206065 
0.551170 -0.191508 0.206635 
0.551170 -0.267615 0.250674 
0.551179 -0.345095 0.306712 
0.551181 -0.160451 0.127275 
0.551182 -0.154355 0.183231 
0.551186 -0.360997 0.307252 
0.551187 -0.360998 0.314282 
0.551188 -0.175857 0.176893 
0.551191 -0.178968 0.196729 
0.551197 -0.314487 0.275943 
0.551197 -0.191518 0.221085 
0.551197 -0.175860 0.196408 
0.551199 -0.118458 0.167009 
0.551200 -0.118458 0.148441 
0.551202 -0.191519 0.209516 
0.551202 -0.185224 0.200232 
0.551203 -0.127334 0.148950 
0.551204 -0.142270 0.147231 
0.551207 -0.154362 0.169565 
0.551208 -0.210684 0.220639 
0.551213 -0.243662 0.243502 
0.551221 -0.191526 0.212402 
0.551223 -0.337325 0.308254 
0.551225 -0.250436 0.244626 
0.551226 -0.210691 0.217716 
0.551228 -0.160465 0.148483 
0.551229 -0.322021 0.264443 
0.551233 -0.236962 0.239388 
0.551236 -0.240310 0.224841 
0.551241 -0.136283 0.170908 
0.551245 -0.182107 0.199907 
0.551245 -0.069135 0.259072 
0.551248 -0.166604 0.178823 
0.551249 -0.136285 0.160158 
0.551253 -0.160472 0.181033 
0.551256 -0.325829 0.302019 
0.551257 -0.148313 0.152970 
0.551257 -0.100887 0.160705 
0.551263 -0.163537 0.203630 
0.551264 -0.185245 0.203097 
0.551274 -0.201073 0.190672 
0.551280 -0.257295 0.242723 
0.551284 -0.148321 0.191025 
0.551285 -0.369173 0.334432 
0.551286 -0.115530 0.172215 
0.551292 -0.325850 0.285131 
0.551298 -0.151351 0.161244 
0.551301 -0.210720 0.183271 
0.551311 -0.253884 0.226943 
0.551312 -0.185261 0.205967 
0.551319 -0.163553 0.167626 
0.551323 -0.154394 0.186036 
0.551325 -0.074879 0.219175 
0.551334 -0.253895 0.251431 
0.551338 -0.124400 0.189121 
0.551341 -0.074881 0.210811 
0.551345 -0.377436 0.351548 
0.551347 -0.185273 0.208841 
0.551351 -0.281780 0.253324 
0.551358 -0.230365 0.226400 
0.551362 -0.136313 0.152194 
0.551364 -0.299804 0.279436 
0.551365 -0.109673 0.150641 
0.551367 -0.329711 0.292782 
0.551374 -0.220499 0.207384 
0.551381 -0.377461 0.370403 
0.551391 -0.257347 0.239700 
0.551400 -0.127380 0.170332 
0.551401 -0.139318 0.184800 
0.551404 -0.220511 0.210307 
0.551414 -0.220515 0.219100 
0.551423 -0.179043 0.208165 
0.551423 -0.267738 0.272928 
0.551424 -0.220519 0.216165 
0.551430 -0.353152 0.308844 
0.551433 -0.243759 0.237501 
0.551434 -0.175935 0.207827 
0.551436 -0.373372 0.357838 
0.551440 -0.310899 0.271987 
0.551441 -0.157472 0.186345 
0.551446 -0.267749 0.244576 
0.551447 -0.288979 0.242117 
0.551450 -0.361170 0.325091 
0.551451 -0.154430 0.188846 
0.551456 -0.172841 0.210350 
0.551457 -0.142336 0.182317 
0.551458 -0.175943 0.219314 
0.551458 -0.172841 0.218960 
0.551460 -0.130368 0.167861 
0.551461 -0.169750 0.181935 
0.551466 -0.121468 0.156610 
0.551473 -0.175948 0.216436 
0.551473 -0.175948 0.213562 
0.551480 -0.148373 0.196651 
0.551480 -0.373402 0.324842 
0.551480 -0.115571 0.145729 
0.551484 -0.253964 0.248402 
0.551488 -0.148375 0.177340 
0.551489 -0.237072 0.200862 
0.551491 -0.296230 0.249764 
0.551493 -0.133356 0.165387 
0.551496 -0.182190 0.183138 
0.551499 -0.136347 0.162910 
0.551500 -0.109700 0.171922 
0.551504 -0.307229 0.297753 
0.551506 -0.118524 0.151158 
0.551514 -0.179073 0.182837 
0.551519 -0.337506 0.298094 
0.551522 -0.121481 0.167293 
0.551533 -0.377565 0.308142 
0.551535 -0.157499 0.172638 
0.551536 -0.257414 0.255237 
0.551538 -0.289027 0.270759 
0.551540 -0.345321 0.303449 
0.551542 -0.160556 0.186654 
0.551547 -0.121486 0.180792 
0.551547 -0.201173 0.231270 
0.551548 -0.289032 0.257937 
0.551548 -0.369349 0.338232 
0.551555 -0.223849 0.240506 
0.551561 -0.369358 0.320195 
0.551564 -0.267806 0.241533 
0.551570 -0.361249 0.335962 
0.551573 -0.361250 0.310977 
0.551574 -0.257432 0.233664 
0.551583 -0.390159 0.318656 
0.551593 -0.373478 0.361695 
0.551594 -0.139367 0.152452 
0.551600 -0.243833 0.231514 
0.551603 -0.271320 0.248373 
0.551608 -0.169795 0.184756 
0.551615 -0.201197 0.228344 
0.551617 -0.201198 0.202186 
0.551620 -0.250616 0.254077 
0.551621 -0.254027 0.245376 
0.551626 -0.136378 0.176450 
0.551628 -0.237132 0.209692 
0.551629 -0.296304 0.262585 
0.551634 -0.377634 0.333319 
0.551641 -0.172899 0.185061 
0.551642 -0.160585 0.172926 
0.551649 -0.322267 0.281126 
0.551655 -0.377648 0.344330 
0.551657 -0.176006 0.185365 
0.551659 -0.264375 0.222663 
0.551661 -0.109732 0.153355 
0.551666 -0.160592 0.189472 
0.551668 -0.314756 0.269613 
0.551670 -0.201217 0.205076 
0.551682 -0.307328 0.287805 
0.551687 -0.210867 0.238632 
0.551688 -0.303646 0.277098 
0.551700 -0.377679 0.359258 
0.551705 -0.227203 0.223090 
0.551709 -0.201232 0.222503 
0.551729 -0.179143 0.171837 
0.551732 -0.163676 0.173214 
0.551735 -0.142407 0.187906 
0.551735 -0.201241 0.219588 
0.551736 -0.115625 0.156342 
0.551737 -0.271385 0.245317 
0.551749 -0.201246 0.216677 
0.551754 -0.223930 0.234569 
0.551773 -0.172940 0.187890 
0.551777 -0.109755 0.163988 
0.551783 -0.243914 0.249900 
0.551783 -0.250690 0.251049 
0.551788 -0.377740 0.326157 
0.551790 -0.250693 0.223600 
0.551792 -0.127470 0.175857 
0.551794 -0.341564 0.309546 
0.551794 -0.194892 0.198658 
0.551797 -0.115638 0.167009 
0.551799 -0.115638 0.148441 
0.551799 -0.136421 0.179229 
0.551802 -0.095166 0.165873 
0.551803 -0.230550 0.241629 
0.551810 -0.353396 0.312560 
0.551810 -0.151492 0.180431 
0.551812 -0.148463 0.182926 
0.551816 -0.285586 0.263752 
0.551818 -0.314842 0.296264 
0.551819 -0.296406 0.259468 
0.551820 -0.322367 0.267999 
0.551821 -0.142430 0.144746 
0.551822 -0.318595 0.317701 
0.551831 -0.148468 0.169281 
0.551831 -0.220682 0.240131 
0.551834 -0.326171 0.278734 
0.551836 -0.278479 0.234195 
0.551839 -0.185438 0.191978 
0.551843 -0.267942 0.254110 
0.551844 -0.237225 0.245751 
0.551847 -0.337707 0.294855 
0.551852 -0.377783 0.363126 
0.551857 -0.271444 0.242266 
0.551863 -0.300076 0.244292 
0.551879 -0.361451 0.321773 
0.551881 -0.377804 0.319018 
0.551887 -0.345538 0.300188 
0.551889 -0.314882 0.316809 
0.551892 -0.127494 0.165107 
0.551903 -0.292825 0.268434 
0.551903 -0.330031 0.317129 
0.551906 -0.118610 0.164547 
0.551909 -0.240603 0.234143 
0.551914 -0.377826 0.311901 
0.551918 -0.176090 0.174367 
0.551918 -0.194937 0.204416 
0.551923 -0.136451 0.157679 
0.551929 -0.243978 0.246887 
0.551929 -0.130478 0.162634 
0.551930 -0.133462 0.170908 
0.551938 -0.210963 0.200586 
0.551939 -0.185472 0.194833 
0.551945 -0.109789 0.156075 
0.551946 -0.210966 0.229794 
0.551951 -0.337770 0.301758 
0.551952 -0.254180 0.236318 
0.551959 -0.191782 0.201209 
0.551960 -0.142465 0.193514 
0.551960 -0.118621 0.197163 
0.551964 -0.271497 0.239217 
0.551968 -0.169906 0.193246 
0.551971 -0.330072 0.286351 
0.551979 -0.289258 0.264533 
0.551979 -0.182349 0.194516 
0.551990 -0.194962 0.210192 
0.551995 -0.341689 0.327230 
0.551995 -0.257629 0.246125 
0.551995 -0.296501 0.256354 
0.551998 -0.194965 0.218888 
0.552000 -0.163756 0.232639 
0.552003 -0.268020 0.251052 
0.552004 -0.109801 0.148186 
0.552005 -0.210989 0.226855 
0.552006 -0.160691 0.178526 
0.552007 -0.254205 0.254851 
0.552009 -0.224033 0.249823 
0.552017 -0.166836 0.195765 
0.552017 -0.296513 0.269224 
0.552023 -0.289281 0.248653 
0.552025 -0.185501 0.197693 
0.552030 -0.292892 0.252493 
0.552037 -0.148523 0.172061 
0.552040 -0.254220 0.267432 
0.552046 -0.353547 0.295316 
0.552051 -0.211006 0.223920 
0.552058 -0.271543 0.236173 
0.552060 -0.191817 0.206968 
0.552064 -0.244038 0.281472 
0.552066 -0.157651 0.181033 
0.552067 -0.182379 0.197372 
0.552068 -0.326309 0.309333 
0.552073 -0.127535 0.157144 
0.552080 -0.211017 0.209305 
0.552080 -0.118647 0.156610 
0.552084 -0.148536 0.188532 
0.552089 -0.173039 0.196408 
0.552099 -0.185525 0.200558 
0.552099 -0.154612 0.183536 
0.552100 -0.101041 0.185088 
0.552103 -0.377955 0.370888 
0.552103 -0.191832 0.218537 
0.552104 -0.289324 0.284073 
0.552106 -0.244056 0.259355 
0.552106 -0.373826 0.343414 
0.552108 -0.289326 0.274279 
0.552109 -0.163788 0.201119 
0.552119 -0.292940 0.265315 
0.552119 -0.127546 0.167861 
0.552130 -0.240700 0.222215 
0.552134 -0.121616 0.175561 
0.552138 -0.124580 0.186654 
0.552146 -0.118661 0.148696 
0.552154 -0.377990 0.340956 
0.552162 -0.337899 0.291619 
0.552166 -0.300241 0.279843 
0.552167 -0.130535 0.165387 
0.552168 -0.211051 0.247890 
0.552168 -0.173064 0.199256 
0.552172 -0.341798 0.313244 
0.552178 -0.139514 0.182317 
0.552179 -0.244089 0.240870 
0.552179 -0.289363 0.261425 
0.552188 -0.237372 0.236768 
0.552189 -0.133525 0.162910 
0.552190 -0.257719 0.258672 
0.552203 -0.207835 0.226497 
0.552206 -0.185561 0.206301 
0.552212 -0.357648 0.320896 
0.552215 -0.169982 0.179416 
0.552215 -0.185564 0.180898 
0.552217 -0.157694 0.183841 
0.552220 -0.322600 0.261655 
0.552221 -0.230725 0.226754 
0.552222 -0.142533 0.179830 
0.552230 -0.121637 0.164827 
0.552230 -0.148575 0.174846 
0.552231 -0.109846 0.169467 
0.552231 -0.179306 0.202768 
0.552234 -0.173085 0.202108 
0.552237 -0.315080 0.273171 
0.552248 -0.207851 0.223566 
0.552250 -0.220850 0.207713 
0.552261 -0.315094 0.299886 
0.552262 -0.326424 0.292367 
0.552265 -0.330247 0.300067 
0.552265 -0.230743 0.223791 
0.552267 -0.185582 0.214947 
0.552267 -0.176201 0.180009 
0.552267 -0.179318 0.180305 
0.552268 -0.075007 0.216746 
0.552272 -0.365758 0.323088 
0.552276 -0.303969 0.297327 
0.552279 -0.207863 0.220639 
0.552281 -0.179322 0.205633 
0.552284 -0.244135 0.237868 
0.552286 -0.271656 0.251810 
0.552287 -0.173101 0.204965 
0.552287 -0.182451 0.208841 
0.552293 -0.176209 0.205299 
0.552296 -0.220868 0.216507 
0.552303 -0.148595 0.194157 
0.552312 -0.121655 0.178326 
0.552313 -0.166926 0.215736 
0.552315 -0.361737 0.336415 
0.552322 -0.166928 0.181935 
0.552327 -0.173114 0.207827 
0.552330 -0.282280 0.250620 
0.552333 -0.127596 0.170620 
0.552334 -0.257787 0.237043 
0.552350 -0.289453 0.271158 
0.552353 -0.173122 0.210692 
0.552353 -0.118706 0.170044 
0.552356 -0.176229 0.211034 
0.552358 -0.326481 0.282334 
0.552361 -0.217624 0.230881 
0.552361 -0.069275 0.256646 
0.552365 -0.338024 0.305432 
0.552365 -0.173126 0.213562 
0.552366 -0.289461 0.258320 
0.552372 -0.257804 0.255624 
0.552376 -0.338030 0.312375 
0.552376 -0.244176 0.234868 
0.552386 -0.326497 0.299222 
0.552399 -0.115764 0.153881 
0.552404 -0.072151 0.230766 
0.552406 -0.173138 0.182536 
0.552408 -0.353778 0.327072 
0.552410 -0.237468 0.227817 
0.552411 -0.148624 0.177636 
0.552419 -0.237472 0.204122 
0.552419 -0.318939 0.290708 
0.552420 -0.257827 0.234022 
0.552422 -0.176251 0.182837 
0.552430 -0.300384 0.276695 
0.552437 -0.278782 0.259491 
0.552437 -0.179373 0.169305 
0.552438 -0.121683 0.141048 
0.552438 -0.109887 0.172215 
0.552440 -0.201499 0.199622 
0.552445 -0.296743 0.247030 
0.552448 -0.326534 0.306102 
0.552455 -0.160822 0.186963 
0.552458 -0.237488 0.224841 
0.552464 -0.237491 0.207070 
0.552469 -0.311479 0.269222 
0.552469 -0.148639 0.199800 
0.552474 -0.217669 0.224983 
0.552480 -0.157769 0.189472 
0.552483 -0.293133 0.271955 
0.552489 -0.268256 0.270251 
0.552490 -0.133598 0.179229 
0.552490 -0.201517 0.228706 
0.552493 -0.257861 0.231006 
0.552493 -0.369982 0.331534 
0.552500 -0.268261 0.257558 
0.552504 -0.361861 0.329303 
0.552505 -0.115786 0.164547 
0.552507 -0.268264 0.238855 
0.552510 -0.095288 0.163428 
0.552512 -0.285946 0.276996 
0.552519 -0.244239 0.228880 
0.552519 -0.353850 0.320020 
0.552523 -0.142611 0.185418 
0.552524 -0.154730 0.175431 
0.552530 -0.264793 0.219992 
0.552530 -0.378248 0.326595 
0.552535 -0.127642 0.173384 
0.552539 -0.148658 0.166786 
0.552539 -0.289552 0.255218 
0.552540 -0.257883 0.252579 
0.552545 -0.201537 0.225780 
0.552551 -0.237529 0.249135 
0.552558 -0.118750 0.172800 
0.552564 -0.151699 0.177933 
0.552570 -0.244262 0.225892 
0.552589 -0.127655 0.162634 
0.552602 -0.167013 0.187581 
0.552604 -0.330450 0.296838 
0.552605 -0.378299 0.348629 
0.552605 -0.195179 0.196102 
0.552606 -0.130638 0.170908 
0.552617 -0.278873 0.256406 
0.552620 -0.201564 0.211206 
0.552624 -0.234219 0.233418 
0.552626 -0.357916 0.317588 
0.552629 -0.121725 0.183873 
0.552630 -0.201568 0.217023 
0.552631 -0.361944 0.322211 
0.552632 -0.278880 0.269164 
0.552632 -0.201568 0.214113 
0.552645 -0.157816 0.175723 
0.552650 -0.133636 0.168429 
0.552650 -0.133636 0.182012 
0.552653 -0.357934 0.310551 
0.552654 -0.127669 0.192550 
0.552654 -0.211237 0.236053 
0.552659 -0.322857 0.288333 
0.552659 -0.163951 0.190098 
0.552666 -0.315325 0.317255 
0.552667 -0.182577 0.189127 
0.552673 -0.240936 0.237501 
0.552673 -0.251094 0.220953 
0.552674 -0.121735 0.170332 
0.552674 -0.268346 0.254493 
0.552676 -0.201584 0.127740 
0.552688 -0.160889 0.192612 
0.552692 -0.271855 0.242632 
0.552694 -0.237590 0.246130 
0.552697 -0.234250 0.230439 
0.552697 -0.361987 0.315143 
0.552698 -0.275377 0.249496 
0.552701 -0.154780 0.178230 
0.552702 -0.361990 0.308097 
0.552704 -0.353969 0.330831 
0.552707 -0.346051 0.314547 
0.552709 -0.378370 0.367484 
0.552718 -0.326693 0.323629 
0.552720 -0.311621 0.302658 
0.552723 -0.374244 0.354929 
0.552728 -0.224325 0.132253 
0.552732 -0.148710 0.183231 
0.552736 -0.115834 0.167293 
0.552736 -0.127689 0.154670 
0.552742 -0.304226 0.274348 
0.552743 -0.244338 0.262784 
0.552743 -0.278936 0.231495 
0.552747 -0.311636 0.309498 
0.552749 -0.160907 0.176016 
0.552751 -0.127692 0.195349 
0.552754 -0.195232 0.201860 
0.552764 -0.195235 0.227982 
0.552767 -0.286078 0.273876 
0.552768 -0.121755 0.186654 
0.552769 -0.170153 0.190725 
0.552773 -0.139665 0.177043 
0.552774 -0.307937 0.285047 
0.552775 -0.118796 0.146230 
0.552775 -0.244352 0.247266 
0.552775 -0.251141 0.248402 
0.552783 -0.192068 0.198658 
0.552785 -0.278957 0.253324 
0.552789 -0.109957 0.196833 
0.552791 -0.362048 0.333081 
0.552795 -0.338286 0.333799 
0.552796 -0.118801 0.194698 
0.552799 -0.221069 0.237535 
0.552802 -0.278966 0.228446 
0.552806 -0.304261 0.261381 
0.552812 -0.326749 0.316687 
0.552817 -0.374307 0.332872 
0.552829 -0.167082 0.193246 
0.552836 -0.268424 0.251431 
0.552838 -0.185774 0.195150 
0.552839 -0.322962 0.322729 
0.552848 -0.346139 0.290419 
0.552849 -0.354061 0.323764 
0.552851 -0.227675 0.244615 
0.552855 -0.278993 0.266066 
0.552856 -0.195268 0.222149 
0.552864 -0.241020 0.252917 
0.552865 -0.154826 0.181033 
0.552875 -0.133691 0.160429 
0.552877 -0.121779 0.173092 
0.552877 -0.211322 0.227213 
0.552888 -0.315452 0.263677 
0.552889 -0.378493 0.341410 
0.552889 -0.101186 0.182637 
0.552893 -0.195281 0.216331 
0.552898 -0.127726 0.178928 
0.552901 -0.224396 0.217191 
0.552902 -0.173294 0.193881 
0.552909 -0.244411 0.244252 
0.552910 -0.289746 0.284488 
0.552912 -0.176407 0.194199 
0.552915 -0.300648 0.270408 
0.552923 -0.185802 0.198015 
0.552927 -0.124758 0.184182 
0.552929 -0.330645 0.293611 
0.552939 -0.338375 0.292030 
0.552944 -0.139708 0.179830 
0.552951 -0.109989 0.167009 
0.552951 -0.069348 0.222342 
0.552953 -0.354128 0.309698 
0.552953 -0.115880 0.170044 
0.552954 -0.254641 0.230652 
0.552957 -0.118836 0.200292 
0.552958 -0.170211 0.176893 
0.552961 -0.098280 0.163708 
0.552962 -0.148772 0.172349 
0.552963 -0.258081 0.243465 
0.552965 -0.297022 0.296047 
0.552968 -0.164043 0.230124 
0.552976 -0.297027 0.253617 
0.552980 -0.192137 0.210192 
0.552982 -0.258089 0.271708 
0.552986 -0.211364 0.215481 
0.552988 -0.378561 0.356338 
0.552992 -0.130730 0.176450 
0.552996 -0.289791 0.261812 
0.552997 -0.160979 0.203964 
0.552998 -0.192143 0.215985 
0.553001 -0.148783 0.188846 
0.553010 -0.179559 0.177770 
0.553013 -0.224441 0.247222 
0.553015 -0.330696 0.321271 
0.553017 -0.319285 0.314918 
0.553025 -0.378586 0.316096 
0.553029 -0.244464 0.241241 
0.553034 -0.164062 0.227239 
0.553034 -0.121814 0.138579 
0.553038 -0.330710 0.283542 
0.553046 -0.170238 0.199256 
0.553047 -0.297065 0.266487 
0.553049 -0.362217 0.318891 
0.553051 -0.115900 0.151417 
0.553053 -0.127762 0.168145 
0.553054 -0.185846 0.203757 
0.553057 -0.282652 0.266855 
0.553058 -0.217899 0.237165 
0.553061 -0.362225 0.336869 
0.553076 -0.346283 0.304294 
0.553077 -0.208163 0.226855 
0.553078 -0.311822 0.299460 
0.553078 -0.315560 0.260519 
0.553085 -0.315564 0.314033 
0.553086 -0.227771 0.238647 
0.553087 -0.221184 0.205116 
0.553089 -0.338467 0.319783 
0.553092 -0.185859 0.223988 
0.553095 -0.254706 0.264778 
0.553096 -0.412840 0.197917 
0.553097 -0.315571 0.307161 
0.553099 -0.289845 0.291192 
0.553099 -0.382805 0.331725 
0.553117 -0.272064 0.252188 
0.553123 -0.208181 0.223920 
0.553123 -0.133751 0.163185 
0.553128 -0.311851 0.313149 
0.553130 -0.179598 0.203097 
0.553132 -0.237778 0.234143 
0.553134 -0.179599 0.166769 
0.553135 -0.244511 0.256718 
0.553135 -0.173367 0.202438 
0.553137 -0.293479 0.262585 
0.553140 -0.268572 0.261017 
0.553147 -0.182735 0.206301 
0.553150 -0.217935 0.234202 
0.553150 -0.224497 0.244236 
0.553154 -0.148824 0.175139 
0.553154 -0.221211 0.210974 
0.553156 -0.323147 0.326427 
0.553160 -0.110030 0.159072 
0.553161 -0.231117 0.221177 
0.553161 -0.354261 0.327518 
0.553170 -0.110032 0.169756 
0.553174 -0.208200 0.218062 
0.553179 -0.258181 0.237405 
0.553182 -0.244532 0.278835 
0.553183 -0.227811 0.235668 
0.553185 -0.330798 0.342722 
0.553187 -0.173383 0.205299 
0.553196 -0.098321 0.166441 
0.553199 -0.075134 0.214312 
0.553200 -0.323173 0.258862 
0.553202 -0.115932 0.162083 
0.553205 -0.170287 0.207827 
0.553208 -0.095408 0.160980 
0.553208 -0.182755 0.214947 
0.553209 -0.167197 0.213216 
0.553213 -0.179625 0.208841 
0.553225 -0.173395 0.208165 
0.553234 -0.300821 0.277098 
0.553235 -0.179632 0.211718 
0.553241 -0.330831 0.290387 
0.553246 -0.231153 0.248370 
0.553249 -0.173403 0.211034 
0.553256 -0.154935 0.172926 
0.553259 -0.173406 0.216786 
0.553260 -0.279197 0.259878 
0.553268 -0.374612 0.351548 
0.553272 -0.374615 0.329514 
0.553274 -0.311933 0.289464 
0.553276 -0.354335 0.320458 
0.553286 -0.258231 0.278267 
0.553288 -0.118907 0.159615 
0.553293 -0.217992 0.228289 
0.553306 -0.254803 0.246125 
0.553308 -0.151903 0.175431 
0.553311 -0.244589 0.253690 
0.553313 -0.362391 0.340667 
0.553314 -0.101264 0.174671 
0.553315 -0.164146 0.184756 
0.553319 -0.279227 0.241030 
0.553327 -0.293581 0.259468 
0.553328 -0.342514 0.310407 
0.553330 -0.268664 0.257945 
0.553333 -0.080923 0.181710 
0.553337 -0.378800 0.349091 
0.553359 -0.133808 0.165947 
0.553363 -0.244612 0.266224 
0.553366 -0.265194 0.251052 
0.553368 -0.161087 0.187272 
0.553375 -0.275714 0.252946 
0.553380 -0.167248 0.185061 
0.553383 -0.362436 0.322650 
0.553393 -0.289999 0.268434 
0.553395 -0.151927 0.164564 
0.553397 -0.072280 0.228333 
0.553405 -0.374705 0.374292 
0.553407 -0.121896 0.181402 
0.553417 -0.304598 0.264906 
0.553419 -0.211529 0.239382 
0.553421 -0.338670 0.323502 
0.553422 -0.201857 0.226138 
0.553430 -0.366524 0.338232 
0.553433 -0.378866 0.367965 
0.553439 -0.268717 0.236173 
0.553444 -0.142849 0.185727 
0.553445 -0.115983 0.164827 
0.553449 -0.164185 0.187581 
0.553461 -0.072289 0.225521 
0.553466 -0.127857 0.173677 
0.553467 -0.244658 0.223254 
0.553467 -0.127857 0.190073 
0.553473 -0.244661 0.250666 
0.553480 -0.136836 0.177043 
0.553485 -0.300958 0.273949 
0.553490 -0.161123 0.190098 
0.553491 -0.300961 0.283815 
0.553498 -0.101297 0.177424 
0.553499 -0.148916 0.180732 
0.553509 -0.118954 0.189439 
0.553513 -0.265264 0.247998 
0.553528 -0.275790 0.249871 
0.553533 -0.258346 0.249916 
0.553536 -0.378936 0.352944 
0.553538 -0.362538 0.333532 
0.553540 -0.275796 0.285115 
0.553543 -0.304667 0.284637 
0.553545 -0.268768 0.267569 
0.553553 -0.221370 0.240880 
0.553574 -0.272289 0.271460 
0.553575 -0.312102 0.286279 
0.553576 -0.127883 0.192872 
0.553584 -0.327205 0.317129 
0.553592 -0.327210 0.303299 
0.553596 -0.358544 0.328856 
0.553599 -0.161155 0.192929 
0.553604 -0.354545 0.324206 
0.553610 -0.290113 0.265315 
0.553611 -0.279374 0.253703 
0.553614 -0.301028 0.241907 
0.553619 -0.121943 0.136107 
0.553621 -0.155038 0.178526 
0.553621 -0.118978 0.192229 
0.553628 -0.231313 0.239388 
0.553631 -0.167324 0.190725 
0.553646 -0.265327 0.244947 
0.553651 -0.136879 0.179830 
0.553653 -0.127900 0.176450 
0.553659 -0.098404 0.161256 
0.553660 -0.110130 0.164547 
0.553665 -0.290141 0.315077 
0.553668 -0.101328 0.180183 
0.553668 -0.268828 0.251810 
0.553669 -0.148962 0.159015 
0.553672 -0.127905 0.195674 
0.553676 -0.366688 0.342040 
0.553680 -0.238014 0.271493 
0.553683 -0.118992 0.175857 
0.553683 -0.148966 0.169849 
0.553687 -0.211632 0.230519 
0.553689 -0.370783 0.328629 
0.553697 -0.195565 0.225421 
0.553714 -0.176663 0.191664 
0.553719 -0.244770 0.272725 
0.553721 -0.142920 0.174846 
0.553723 -0.301087 0.270803 
0.553725 -0.315929 0.293908 
0.553729 -0.290175 0.275084 
0.553735 -0.354628 0.335054 
0.553736 -0.130906 0.173969 
0.553737 -0.186076 0.195468 
0.553739 -0.158129 0.178823 
0.553749 -0.211655 0.227572 
0.553755 -0.127924 0.198482 
0.553756 -0.221452 0.234935 
0.553759 -0.234700 0.249135 
0.553764 -0.346713 0.297758 
0.553764 -0.195589 0.219588 
0.553766 -0.279453 0.250620 
0.553768 -0.404590 0.280588 
0.553771 -0.164281 0.196086 
0.553774 -0.224750 0.214585 
0.553783 -0.119013 0.165107 
0.553783 -0.358666 0.314712 
0.553786 -0.304800 0.271592 
0.553790 -0.110156 0.199958 
0.553791 -0.148995 0.186345 
0.553798 -0.327332 0.327790 
0.553798 -0.391726 0.319935 
0.553810 -0.133917 0.160701 
0.553813 -0.290219 0.262198 
0.553813 -0.075217 0.195185 
0.553817 -0.338912 0.338008 
0.553817 -0.268900 0.248747 
0.553822 -0.362724 0.305212 
0.553823 -0.286625 0.271158 
0.553827 -0.127941 0.179229 
0.553832 -0.228079 0.242004 
0.553833 -0.211687 0.221689 
0.553835 -0.110165 0.156610 
0.553836 -0.101359 0.158801 
0.553839 -0.286633 0.258320 
0.553841 -0.211690 0.209973 
0.553846 -0.161227 0.201449 
0.553852 -0.164305 0.198930 
0.553854 -0.338935 0.320226 
0.553855 -0.211696 0.218754 
0.553855 -0.308539 0.282284 
0.553859 -0.211697 0.212896 
0.553862 -0.312264 0.283097 
0.553862 -0.286645 0.280940 
0.553864 -0.316008 0.314476 
0.553865 -0.121997 0.162634 
0.553868 -0.139941 0.180131 
0.553872 -0.170492 0.196729 
0.553878 -0.244840 0.241612 
0.553883 -0.192451 0.213429 
0.553886 -0.279513 0.263361 
0.553889 -0.116076 0.159615 
0.553890 -0.208469 0.230156 
0.553891 -0.186128 0.201209 
0.553894 -0.179846 0.232347 
0.553900 -0.158175 0.181634 
0.553901 -0.110178 0.148696 
0.553902 -0.234761 0.246130 
0.553908 -0.279524 0.247541 
0.553913 -0.124980 0.170908 
0.553915 -0.354744 0.327964 
0.553918 -0.149029 0.189159 
0.553918 -0.312296 0.306727 
0.553921 -0.258527 0.240800 
0.553921 -0.124982 0.160158 
0.553924 -0.323596 0.292367 
0.553928 -0.327409 0.320825 
0.553931 -0.304881 0.311822 
0.553938 -0.182996 0.200884 
0.553947 -0.301209 0.267659 
0.553958 -0.127971 0.218254 
0.553967 -0.244879 0.269674 
0.553967 -0.283117 0.276996 
0.553967 -0.179869 0.200558 
0.553973 -0.173629 0.199907 
0.553975 -0.290304 0.271955 
0.553979 -0.164343 0.224719 
0.553986 -0.244888 0.238600 
0.553988 -0.127978 0.182012 
0.553996 -0.327449 0.313882 
0.553997 -0.183016 0.203757 
0.553998 -0.208510 0.224274 
0.554001 -0.362841 0.330195 
0.554004 -0.221551 0.208373 
0.554005 -0.290320 0.281761 
0.554006 -0.255126 0.249538 
0.554012 -0.304925 0.268441 
0.554013 -0.286723 0.255218 
0.554013 -0.186169 0.221440 
0.554015 -0.164353 0.207489 
0.554020 -0.290328 0.318709 
0.554023 -0.119065 0.181402 
0.554024 -0.186172 0.209854 
0.554026 -0.231479 0.221523 
0.554029 -0.279585 0.273070 
0.554029 -0.221561 0.211308 
0.554032 -0.339044 0.330968 
0.554032 -0.208523 0.221339 
0.554033 -0.354820 0.320896 
0.554041 -0.152104 0.172926 
0.554041 -0.186178 0.212745 
0.554044 -0.304942 0.288220 
0.554048 -0.323668 0.299222 
0.554049 -0.323669 0.319932 
0.554051 -0.258588 0.269043 
0.554054 -0.308650 0.269222 
0.554059 -0.101400 0.172215 
0.554065 -0.238179 0.231514 
0.554067 -0.316124 0.270785 
0.554074 -0.179904 0.206301 
0.554075 -0.269026 0.242632 
0.554081 -0.244929 0.235593 
0.554083 -0.164373 0.182236 
0.554094 -0.183048 0.212402 
0.554094 -0.101406 0.161531 
0.554098 -0.297630 0.293305 
0.554099 -0.272547 0.249496 
0.554099 -0.176786 0.223271 
0.554103 -0.110218 0.159344 
0.554113 -0.379331 0.338483 
0.554118 -0.366980 0.349685 
0.554129 -0.228201 0.233056 
0.554129 -0.371077 0.325280 
0.554129 -0.179922 0.217837 
0.554132 -0.149087 0.194800 
0.554136 -0.179924 0.214947 
0.554139 -0.255187 0.262118 
0.554146 -0.272570 0.274962 
0.554147 -0.161314 0.184756 
0.554155 -0.244962 0.254077 
0.554175 -0.122065 0.178928 
0.554199 -0.128027 0.171197 
0.554200 -0.228230 0.230080 
0.554202 -0.319969 0.312129 
0.554202 -0.137015 0.191025 
0.554211 -0.312461 0.296686 
0.554223 -0.125050 0.192872 
0.554224 -0.143050 0.183231 
0.554224 -0.283248 0.283658 
0.554225 -0.305042 0.265292 
0.554225 -0.137020 0.174554 
0.554226 -0.119108 0.170620 
0.554230 -0.119109 0.159886 
0.554240 -0.231568 0.261189 
0.554241 -0.122080 0.203772 
0.554241 -0.231569 0.245751 
0.554246 -0.347015 0.308418 
0.554254 -0.101436 0.174967 
0.554255 -0.149120 0.178230 
0.554259 -0.238263 0.274950 
0.554264 -0.301381 0.300936 
0.554269 -0.308770 0.266066 
0.554269 -0.316240 0.311252 
0.554270 -0.128043 0.187593 
0.554272 -0.312495 0.317255 
0.554273 -0.343099 0.328580 
0.554274 -0.276162 0.266066 
0.554274 -0.339192 0.316951 
0.554278 -0.258694 0.265974 
0.554279 -0.290463 0.278623 
0.554284 -0.383625 0.328787 
0.554287 -0.316250 0.267612 
0.554290 -0.245022 0.276194 
0.554291 -0.301396 0.274348 
0.554298 -0.158288 0.173502 
0.554307 -0.137041 0.193836 
0.554309 -0.379466 0.331283 
0.554311 -0.339215 0.334714 
0.554312 -0.119127 0.186967 
0.554313 -0.312519 0.310375 
0.554318 -0.245034 0.251049 
0.554322 -0.294108 0.256732 
0.554329 -0.128057 0.152452 
0.554337 -0.269153 0.255258 
0.554337 -0.128058 0.144500 
0.554338 -0.110265 0.189121 
0.554344 -0.202193 0.223566 
0.554353 -0.276201 0.285534 
0.554354 -0.069524 0.266494 
0.554356 -0.327661 0.317572 
0.554359 -0.110269 0.162083 
0.554359 -0.355028 0.324649 
0.554362 -0.098529 0.169467 
0.554365 -0.155246 0.176016 
0.554369 -0.269169 0.267968 
0.554372 -0.258738 0.250295 
0.554390 -0.211900 0.236794 
0.554391 -0.128071 0.190391 
0.554396 -0.272693 0.271862 
0.554399 -0.149159 0.223270 
0.554411 -0.331531 0.329151 
0.554414 -0.140079 0.191343 
0.554421 -0.272706 0.281585 
0.554427 -0.119151 0.173384 
0.554431 -0.072415 0.223083 
0.554432 -0.405075 0.270487 
0.554436 -0.101469 0.177725 
0.554438 -0.327710 0.286758 
0.554438 -0.231651 0.258171 
0.554444 -0.140087 0.174846 
0.554445 -0.379559 0.357277 
0.554460 -0.149175 0.214685 
0.554463 -0.331562 0.339907 
0.554465 -0.176902 0.172405 
0.554470 -0.186322 0.239314 
0.554477 -0.137083 0.199471 
0.554478 -0.235005 0.228172 
0.554480 -0.211935 0.233836 
0.554482 -0.119163 0.162634 
0.554484 -0.158341 0.176308 
0.554486 -0.134080 0.158213 
0.554493 -0.143120 0.188846 
0.554495 -0.225043 0.229722 
0.554496 -0.339328 0.327680 
0.554509 -0.283394 0.280529 
0.554512 -0.101483 0.156342 
0.554514 -0.221755 0.256591 
0.554516 -0.258805 0.247249 
0.554519 -0.405139 0.253367 
0.554522 -0.290591 0.285317 
0.554524 -0.221759 0.238277 
0.554525 -0.155291 0.229753 
0.554527 -0.235026 0.225192 
0.554528 -0.305209 0.291814 
0.554532 -0.375469 0.348629 
0.554536 -0.301529 0.239155 
0.554537 -0.225060 0.132686 
0.554540 -0.186346 0.192917 
0.554542 -0.137099 0.202295 
0.554553 -0.122148 0.160158 
0.554557 -0.155300 0.201119 
0.554558 -0.081102 0.187535 
0.554562 -0.069551 0.251778 
0.554565 -0.327785 0.328244 
0.554571 -0.149205 0.183841 
0.554573 -0.101494 0.167009 
0.554573 -0.339375 0.338470 
0.554580 -0.343289 0.343166 
0.554585 -0.347227 0.319143 
0.554586 -0.164523 0.193564 
0.554588 -0.379657 0.335103 
0.554589 -0.269276 0.264881 
0.554592 -0.211977 0.252030 
0.554593 -0.128118 0.196000 
0.554599 -0.255399 0.278267 
0.554607 -0.379670 0.361152 
0.554625 -0.305262 0.281877 
0.554627 -0.245171 0.260539 
0.554627 -0.405218 0.267126 
0.554635 -0.125143 0.168429 
0.554637 -0.294275 0.286147 
0.554637 -0.258862 0.272522 
0.554640 -0.301586 0.318228 
0.554645 -0.367329 0.346320 
0.554649 -0.258867 0.282185 
0.554651 -0.269305 0.249122 
0.554652 -0.075331 0.192744 
0.554655 -0.367336 0.335332 
0.554657 -0.158391 0.179119 
0.554659 -0.308987 0.259761 
0.554664 -0.294290 0.276293 
0.554671 -0.212008 0.224983 
0.554680 -0.276365 0.259878 
0.554680 -0.339440 0.313678 
0.554685 -0.161471 0.198930 
0.554690 -0.192731 0.225421 
0.554691 -0.312732 0.314033 
0.554700 -0.155340 0.218251 
0.554702 -0.221830 0.232331 
0.554708 -0.212022 0.222040 
0.554717 -0.241828 0.250666 
0.554717 -0.305313 0.312264 
0.554722 -0.327878 0.283542 
0.554726 -0.327880 0.300490 
0.554732 -0.212031 0.219100 
0.554737 -0.235115 0.261986 
0.554743 -0.202338 0.241586 
0.554752 -0.212039 0.249050 
0.554752 -0.379769 0.365035 
0.554756 -0.128155 0.179529 
0.554758 -0.164574 0.199256 
0.554762 -0.158421 0.207151 
0.554763 -0.152303 0.170417 
0.554770 -0.327906 0.314321 
0.554782 -0.101532 0.159072 
0.554788 -0.269372 0.246059 
0.554790 -0.355304 0.321335 
0.554792 -0.119230 0.178928 
0.554793 -0.101534 0.169756 
0.554794 -0.180138 0.198015 
0.554795 -0.359321 0.325975 
0.554802 -0.245248 0.270081 
0.554825 -0.343441 0.318266 
0.554830 -0.367452 0.328187 
0.554832 -0.110363 0.167577 
0.554834 -0.309084 0.256614 
0.554837 -0.225181 0.116402 
0.554837 -0.245264 0.238967 
0.554844 -0.245267 0.279673 
0.554848 -0.161518 0.207489 
0.554850 -0.110367 0.148950 
0.554851 -0.131169 0.196325 
0.554858 -0.231826 0.224841 
0.554859 -0.221893 0.250597 
0.554860 -0.347399 0.294905 
0.554865 -0.225193 0.244994 
0.554866 -0.355353 0.354052 
0.554866 -0.241893 0.247644 
0.554867 -0.280008 0.244831 
0.554868 -0.258969 0.238130 
0.554868 -0.255523 0.275190 
0.554868 -0.134173 0.152970 
0.554868 -0.287166 0.268434 
0.554877 -0.290777 0.312347 
0.554879 -0.379856 0.368927 
0.554881 -0.128184 0.215771 
0.554886 -0.235178 0.243502 
0.554896 -0.305411 0.278709 
0.554896 -0.134179 0.191025 
0.554906 -0.119255 0.157411 
0.554913 -0.231849 0.218901 
0.554914 -0.164620 0.222196 
0.554916 -0.128192 0.182317 
0.554916 -0.161538 0.182236 
0.554917 -0.170814 0.202768 
0.554924 -0.186475 0.218888 
0.554925 -0.327998 0.290387 
0.554926 -0.309136 0.279515 
0.554938 -0.235200 0.258960 
0.554941 -0.177054 0.226532 
0.554946 -0.128199 0.142016 
0.554947 -0.339604 0.324394 
0.554948 -0.119263 0.168145 
0.554956 -0.164632 0.216436 
0.554956 -0.164632 0.213562 
0.554959 -0.137202 0.172061 
0.554965 -0.272973 0.275369 
0.554966 -0.081162 0.198623 
0.554966 -0.208874 0.248663 
0.554967 -0.316638 0.297954 
0.554967 -0.301764 0.264906 
0.554968 -0.183337 0.209854 
0.554972 -0.128205 0.149969 
0.554976 -0.320416 0.305671 
0.554986 -0.170835 0.222913 
0.554986 -0.183343 0.212745 
0.554987 -0.167734 0.219668 
0.554990 -0.183344 0.215639 
0.554996 -0.287232 0.252493 
0.554998 -0.245335 0.254464 
0.554999 -0.101572 0.172507 
0.555000 -0.312906 0.297109 
0.555001 -0.149320 0.175723 
0.555001 -0.241952 0.244626 
0.555002 -0.075378 0.206640 
0.555002 -0.298116 0.300505 
0.555003 -0.235228 0.240500 
0.555006 -0.137214 0.188532 
0.555011 -0.269480 0.297603 
0.555022 -0.177080 0.220731 
0.555022 -0.180212 0.212402 
0.555024 -0.328056 0.324979 
0.555034 -0.081172 0.201406 
0.555034 -0.122254 0.198482 
0.555038 -0.283664 0.274279 
0.555040 -0.101579 0.161807 
0.555041 -0.339661 0.317389 
0.555042 -0.143261 0.211485 
0.555042 -0.177086 0.217837 
0.555046 -0.149333 0.195122 
0.555048 -0.110406 0.170332 
0.555050 -0.316685 0.311690 
0.555051 -0.312935 0.317701 
0.555057 -0.107460 0.154144 
0.555062 -0.128226 0.185109 
0.555063 -0.273022 0.262580 
0.555069 -0.221977 0.116211 
0.555072 -0.339681 0.310407 
0.555079 -0.312951 0.303949 
0.555086 -0.212166 0.258397 
0.555086 -0.305516 0.315916 
0.555088 -0.290887 0.279030 
0.555090 -0.140250 0.186036 
0.555093 -0.343607 0.339855 
0.555095 -0.380003 0.342772 
0.555104 -0.122270 0.201293 
0.555104 -0.119297 0.184491 
0.555109 -0.155454 0.190098 
0.555118 -0.305534 0.309060 
0.555123 -0.228610 0.227463 
0.555123 -0.367646 0.331980 
0.555124 -0.255640 0.272115 
0.555140 -0.316736 0.287922 
0.555140 -0.305546 0.285458 
0.555142 -0.110425 0.186654 
0.555154 -0.110427 0.151676 
0.555160 -0.122282 0.204110 
0.555162 -0.119309 0.170908 
0.555164 -0.343651 0.321995 
0.555166 -0.276606 0.285953 
0.555166 -0.301872 0.261764 
0.555169 -0.328143 0.311071 
0.555170 -0.324324 0.296420 
0.555171 -0.259111 0.285698 
0.555172 -0.255663 0.259454 
0.555185 -0.309280 0.276342 
0.555195 -0.269569 0.268366 
0.555195 -0.128257 0.187906 
0.555201 -0.363627 0.327302 
0.555207 -0.259128 0.276011 
0.555207 -0.355571 0.318023 
0.555211 -0.259129 0.250674 
0.555218 -0.155485 0.192929 
0.555218 -0.140282 0.188846 
0.555220 -0.158551 0.190412 
0.555220 -0.298233 0.290558 
0.555223 -0.202513 0.223920 
0.555225 -0.231980 0.243128 
0.555234 -0.305597 0.262529 
0.555235 -0.343695 0.314981 
0.555247 -0.363657 0.349219 
0.555249 -0.324370 0.317129 
0.555258 -0.339794 0.328130 
0.555263 -0.149391 0.203630 
0.555268 -0.269605 0.278065 
0.555276 -0.212239 0.255407 
0.555278 -0.309332 0.263295 
0.555281 -0.283789 0.271158 
0.555284 -0.072527 0.249337 
0.555284 -0.101624 0.164547 
0.555285 -0.324391 0.310202 
0.555288 -0.225364 0.233056 
0.555294 -0.098694 0.159072 
0.555300 -0.235353 0.252917 
0.555302 -0.110456 0.162358 
0.555302 -0.225370 0.113788 
0.555308 -0.276677 0.263361 
0.555315 -0.245475 0.248402 
0.555317 -0.137290 0.196977 
0.555330 -0.196142 0.232003 
0.555333 -0.186612 0.190363 
0.555333 -0.313094 0.293908 
0.555334 -0.149410 0.220763 
0.555341 -0.149412 0.181334 
0.555342 -0.232029 0.240129 
0.555343 -0.320627 0.302446 
0.555346 -0.125304 0.165947 
0.555351 -0.291025 0.275890 
0.555351 -0.301972 0.258626 
0.555355 -0.298306 0.297327 
0.555357 -0.149416 0.217897 
0.555360 -0.149417 0.212178 
0.555362 -0.081220 0.185088 
0.555374 -0.101641 0.178026 
0.555376 -0.320647 0.309333 
0.555384 -0.359703 0.333532 
0.555387 -0.245507 0.273547 
0.555394 -0.313128 0.321379 
0.555395 -0.347734 0.312560 
0.555396 -0.155535 0.198604 
0.555407 -0.280281 0.276996 
0.555412 -0.302005 0.298180 
0.555418 -0.355706 0.350704 
0.555426 -0.305703 0.282284 
0.555427 -0.235407 0.222562 
0.555427 -0.255780 0.234739 
0.555429 -0.298345 0.304120 
0.555430 -0.309416 0.273171 
0.555445 -0.232072 0.237135 
0.555447 -0.302025 0.236399 
0.555452 -0.276749 0.273070 
0.555455 -0.186653 0.236759 
0.555455 -0.273214 0.269164 
0.555458 -0.196187 0.226138 
0.555462 -0.332160 0.333341 
0.555463 -0.276754 0.282829 
0.555472 -0.232083 0.255546 
0.555475 -0.152498 0.167906 
0.555480 -0.075443 0.190300 
0.555480 -0.110492 0.195023 
0.555484 -0.222142 0.235668 
0.555484 -0.347790 0.352158 
0.555485 -0.155560 0.227239 
0.555486 -0.343850 0.325733 
0.555488 -0.371987 0.344330 
0.555488 -0.313181 0.307596 
0.555488 -0.259259 0.244576 
0.555501 -0.196202 0.223211 
0.555503 -0.158632 0.198930 
0.555505 -0.305747 0.305858 
0.555506 -0.328342 0.300913 
0.555513 -0.161712 0.196408 
0.555514 -0.128330 0.177043 
0.555516 -0.101667 0.167293 
0.555518 -0.273245 0.278886 
0.555522 -0.155570 0.204298 
0.555527 -0.143386 0.191977 
0.555529 -0.255827 0.253345 
0.555532 -0.269733 0.274962 
0.555535 -0.222163 0.113602 
0.555537 -0.155574 0.224357 
0.555541 -0.101671 0.180792 
0.555543 -0.328363 0.314759 
0.555548 -0.186684 0.233830 
0.555548 -0.222168 0.253983 
0.555550 -0.119393 0.176450 
0.555550 -0.122368 0.187593 
0.555551 -0.339974 0.331875 
0.555570 -0.134343 0.185727 
0.555571 -0.298421 0.277501 
0.555573 -0.119398 0.154933 
0.555594 -0.283948 0.277809 
0.555594 -0.255857 0.265974 
0.555599 -0.291155 0.272753 
0.555601 -0.393001 0.324614 
0.555603 -0.380351 0.369408 
0.555604 -0.128351 0.147482 
0.555610 -0.355829 0.314712 
0.555620 -0.110520 0.178627 
0.555620 -0.155598 0.181935 
0.555624 -0.269778 0.246429 
0.555624 -0.269778 0.262189 
0.555625 -0.305813 0.269222 
0.555625 -0.158667 0.204632 
0.555638 -0.332265 0.326330 
0.555638 -0.222204 0.229722 
0.555639 -0.110524 0.200626 
0.555640 -0.164835 0.231236 
0.555651 -0.376226 0.379667 
0.555658 -0.137375 0.183231 
0.555658 -0.317032 0.325974 
0.555661 -0.245628 0.257891 
0.555661 -0.128364 0.201961 
0.555666 -0.242242 0.263581 
0.555672 -0.122395 0.190391 
0.555675 -0.259346 0.289222 
0.555679 -0.273324 0.266066 
0.555680 -0.131365 0.193836 
0.555681 -0.347913 0.323322 
0.555685 -0.075471 0.195844 
0.555686 -0.128370 0.179830 
0.555690 -0.149506 0.241315 
0.555690 -0.276867 0.257172 
0.555692 -0.276869 0.269961 
0.555696 -0.101699 0.183564 
0.555696 -0.255904 0.275601 
0.555699 -0.269814 0.291355 
0.555701 -0.134374 0.188532 
0.555705 -0.174172 0.232347 
0.555709 -0.158691 0.213216 
0.555709 -0.158691 0.216086 
0.555709 -0.259362 0.269848 
0.555710 -0.164856 0.228338 
0.555711 -0.340071 0.324840 
0.555712 -0.107587 0.151676 
0.555712 -0.161770 0.204965 
0.555712 -0.355895 0.332631 
0.555724 -0.081273 0.193395 
0.555724 -0.119430 0.179229 
0.555726 -0.380436 0.354341 
0.555728 -0.202698 0.239007 
0.555729 -0.101706 0.159344 
0.555731 -0.332320 0.337085 
0.555733 -0.355908 0.343550 
0.555735 -0.101707 0.170044 
0.555742 -0.209166 0.264387 
0.555749 -0.269838 0.243365 
0.555749 -0.128385 0.221820 
0.555757 -0.225555 0.111172 
0.555758 -0.273363 0.285534 
0.555759 -0.259386 0.279511 
