# .PCD v.7 - Point Cloud Data file format
VERSION .7
FIELDS x y z
SIZE 4 4 4
TYPE F F F
COUNT 1 1 1
WIDTH 1594
HEIGHT 1
POINTS 1594
DATA ascii
0.403100 -0.561312 0.286257 
0.403111 -0.543532 0.242971 
0.403149 -0.526508 0.187032 
0.403167 -0.515523 0.148097 
0.403173 -0.579988 0.375586 
0.403177 -0.537852 0.234749 
0.403189 -0.555420 0.294883 
0.403211 -0.599458 0.464706 
0.403258 -0.599528 0.451500 
0.403269 -0.612989 0.467460 
0.403280 -0.537988 0.224978 
0.403295 -0.538009 0.221729 
0.403309 -0.515704 0.160210 
0.403334 -0.567742 0.328467 
0.403334 -0.561638 0.300666 
0.403355 -0.586628 0.406907 
0.403371 -0.586651 0.402812 
0.403378 -0.543892 0.216768 
0.403384 -0.613164 0.513933 
0.403397 -0.561725 0.315176 
0.403398 -0.549772 0.254960 
0.403401 -0.555711 0.291495 
0.403472 -0.515913 0.163307 
0.403484 -0.526946 0.165484 
0.403496 -0.521416 0.170518 
0.403509 -0.580472 0.368023 
0.403518 -0.627245 0.536934 
0.403538 -0.599945 0.443088 
0.403545 -0.593380 0.426939 
0.403546 -0.580525 0.429034 
0.403548 -0.613414 0.481411 
0.403560 -0.561952 0.297251 
0.403594 -0.550040 0.265314 
0.403595 -0.544185 0.246606 
0.403602 -0.555989 0.288109 
0.403608 -0.538427 0.261689 
0.403627 -0.538452 0.241620 
0.403633 -0.562054 0.304486 
0.403650 -0.562078 0.319028 
0.403666 -0.613593 0.528755 
0.403690 -0.538536 0.238347 
0.403703 -0.620536 0.513576 
0.403720 -0.587159 0.419743 
0.403729 -0.538588 0.258392 
0.403739 -0.544379 0.240016 
0.403768 -0.527316 0.171770 
0.403775 -0.587238 0.415623 
0.403788 -0.538667 0.231814 
0.403794 -0.556253 0.284726 
0.403795 -0.580883 0.384122 
0.403812 -0.562304 0.330211 
0.403817 -0.620711 0.518522 
0.403848 -0.538747 0.225296 
0.403879 -0.600452 0.447817 
0.403896 -0.527484 0.174921 
0.403905 -0.568546 0.351536 
0.403932 -0.568585 0.340185 
0.403941 -0.556456 0.291885 
0.403943 -0.614013 0.519440 
0.403948 -0.600554 0.470032 
0.403966 -0.516544 0.151401 
0.404022 -0.614133 0.505243 
0.404036 -0.614155 0.524384 
0.404044 -0.568743 0.355484 
0.404074 -0.527716 0.165726 
0.404104 -0.581329 0.372501 
0.404108 -0.568832 0.344110 
0.404121 -0.562734 0.326761 
0.404121 -0.581353 0.425430 
0.404126 -0.527784 0.181238 
0.404134 -0.649901 0.550957 
0.404160 -0.568905 0.325425 
0.404161 -0.614345 0.510156 
0.404163 -0.516796 0.145457 
0.404181 -0.544975 0.263864 
0.404183 -0.628279 0.523111 
0.404191 -0.539205 0.241958 
0.404195 -0.562837 0.312155 
0.404205 -0.600936 0.452560 
0.404220 -0.527906 0.168871 
0.404255 -0.539290 0.238681 
0.404261 -0.587945 0.383398 
0.404271 -0.569062 0.348043 
0.404284 -0.614532 0.515081 
0.404287 -0.569085 0.363405 
0.404308 -0.588014 0.412009 
0.404312 -0.563000 0.294230 
0.404336 -0.581661 0.388648 
0.404337 -0.557001 0.324628 
0.404354 -0.601157 0.448343 
0.404357 -0.528085 0.172020 
0.404359 -0.545215 0.237057 
0.404362 -0.581699 0.392705 
0.404369 -0.517060 0.148539 
0.404376 -0.581720 0.396770 
0.404391 -0.539471 0.228874 
0.404402 -0.539485 0.255453 
0.404411 -0.594654 0.449381 
0.404420 -0.563151 0.323312 
0.404422 -0.569274 0.351986 
0.404422 -0.581786 0.364935 
0.404465 -0.557178 0.271220 
0.404475 -0.614822 0.505810 
0.404490 -0.601360 0.444133 
0.404504 -0.517232 0.172884 
0.404520 -0.557253 0.281724 
0.404557 -0.551352 0.269388 
0.404600 -0.545539 0.267555 
0.404603 -0.528407 0.178336 
0.404606 -0.517364 0.194560 
0.404613 -0.615031 0.510726 
0.404627 -0.569563 0.344552 
0.404633 -0.557408 0.321199 
0.404695 -0.582179 0.357387 
0.404789 -0.569791 0.348490 
0.404809 -0.557651 0.296067 
0.404809 -0.528676 0.169117 
0.404819 -0.582356 0.361386 
0.404821 -0.517637 0.166901 
0.404821 -0.540044 0.239015 
0.404863 -0.545894 0.260901 
0.404875 -0.582437 0.401334 
0.404876 -0.540118 0.235738 
0.404886 -0.622354 0.529610 
0.404888 -0.557761 0.303277 
0.404897 -0.523227 0.152751 
0.404922 -0.540180 0.232465 
0.404939 -0.563873 0.301862 
0.404955 -0.517809 0.185403 
0.404959 -0.540228 0.229196 
0.404965 -0.517821 0.170017 
0.404973 -0.570050 0.341062 
0.405063 -0.615715 0.497132 
0.405066 -0.540372 0.252509 
0.405072 -0.529020 0.175430 
0.405077 -0.570196 0.356392 
0.405104 -0.518000 0.160923 
0.405113 -0.570248 0.333655 
0.405126 -0.518027 0.191692 
0.405147 -0.570294 0.344994 
0.405167 -0.564191 0.298436 
0.405177 -0.582871 0.422337 
0.405202 -0.570372 0.360356 
0.405205 -0.589318 0.380281 
0.405230 -0.615969 0.502031 
0.405238 -0.558243 0.278717 
0.405259 -0.518199 0.198000 
0.405290 -0.616060 0.521171 
0.405310 -0.570524 0.337573 
0.405311 -0.529332 0.219850 
0.405361 -0.583136 0.393674 
0.405371 -0.583151 0.401827 
0.405381 -0.616199 0.506943 
0.405422 -0.523905 0.162111 
0.405429 -0.570692 0.330173 
0.405442 -0.602775 0.445178 
0.405442 -0.540874 0.236068 
0.405449 -0.518441 0.182533 
0.405452 -0.558537 0.318190 
0.405489 -0.540936 0.232791 
0.405490 -0.529565 0.188118 
0.405494 -0.570783 0.341500 
0.405510 -0.596270 0.446238 
0.405516 -0.616404 0.511866 
0.405533 -0.518548 0.158052 
0.405534 -0.529622 0.172521 
0.405571 -0.529671 0.191302 
0.405573 -0.541048 0.213210 
0.405579 -0.524108 0.165242 
0.405584 -0.602986 0.485577 
0.405609 -0.564806 0.346705 
0.405625 -0.603047 0.454150 
0.405637 -0.518681 0.188821 
0.405643 -0.529766 0.194491 
0.405662 -0.558826 0.300267 
0.405667 -0.583577 0.422848 
0.405723 -0.541248 0.249560 
0.405729 -0.558919 0.314761 
0.405733 -0.583672 0.418728 
0.405752 -0.513397 0.139102 
0.405769 -0.571170 0.396410 
0.405786 -0.583747 0.414615 
0.405820 -0.603337 0.472211 
0.405826 -0.583805 0.410509 
0.405828 -0.571254 0.364791 
0.405834 -0.616887 0.507509 
0.405851 -0.524460 0.159219 
0.405870 -0.583869 0.398235 
0.405891 -0.530089 0.216939 
0.405949 -0.559222 0.275704 
0.405954 -0.519086 0.155178 
0.405969 -0.541576 0.259826 
0.405971 -0.603562 0.495277 
0.405973 -0.571458 0.353336 
0.405985 -0.559272 0.318609 
0.405988 -0.530215 0.169609 
0.405996 -0.524647 0.174666 
0.406066 -0.603704 0.477024 
0.406075 -0.530329 0.188389 
0.406084 -0.541730 0.256516 
0.406085 -0.617270 0.517375 
0.406095 -0.541744 0.229839 
0.406121 -0.597169 0.442565 
0.406125 -0.513868 0.136246 
0.406156 -0.530435 0.191577 
0.406158 -0.597223 0.455716 
0.406164 -0.590714 0.456714 
0.406222 -0.603934 0.463699 
0.406227 -0.530528 0.194770 
0.406229 -0.519439 0.189097 
0.406231 -0.565673 0.328467 
0.406232 -0.571821 0.361272 
0.406242 -0.597346 0.438373 
0.406264 -0.559655 0.315176 
0.406273 -0.525004 0.156324 
0.406286 -0.541999 0.249906 
0.406290 -0.530609 0.197968 
0.406295 -0.604044 0.505026 
0.406297 -0.604047 0.481850 
0.406320 -0.584516 0.411009 
0.406349 -0.597504 0.434186 
0.406353 -0.571992 0.338442 
0.406365 -0.584580 0.402812 
0.406367 -0.519615 0.152301 
0.406373 -0.542114 0.246606 
0.406387 -0.530736 0.204377 
0.406403 -0.604204 0.459451 
0.406415 -0.519676 0.176783 
0.406421 -0.530781 0.207588 
0.406428 -0.559881 0.297251 
0.406432 -0.530796 0.226945 
0.406444 -0.565969 0.332364 
0.406454 -0.530824 0.223709 
0.406459 -0.525245 0.171770 
0.406461 -0.591145 0.461460 
0.406466 -0.597676 0.447291 
0.406488 -0.566029 0.343667 
0.406497 -0.604343 0.468493 
0.406512 -0.604366 0.486689 
0.406517 -0.542307 0.240016 
0.406529 -0.542323 0.260184 
0.406531 -0.519824 0.179923 
0.406532 -0.560025 0.311745 
0.406534 -0.597776 0.487625 
0.406541 -0.509023 0.138479 
0.406588 -0.525412 0.174921 
0.406591 -0.632022 0.541024 
0.406600 -0.572339 0.377245 
0.406601 -0.597874 0.443088 
0.406601 -0.604499 0.500712 
0.406636 -0.618107 0.522903 
0.406645 -0.560181 0.293839 
0.406645 -0.542478 0.256870 
0.406660 -0.572425 0.381259 
0.406667 -0.548327 0.272369 
0.406692 -0.604634 0.464236 
0.406711 -0.604662 0.491540 
0.406716 -0.514617 0.197424 
0.406717 -0.585086 0.419743 
0.406720 -0.618235 0.527868 
0.406722 -0.598053 0.438891 
0.406740 -0.531198 0.191853 
0.406752 -0.542620 0.253559 
0.406763 -0.604738 0.482402 
0.406767 -0.572575 0.393349 
0.406772 -0.585166 0.415623 
0.406791 -0.560381 0.308316 
0.406817 -0.514744 0.203733 
0.406826 -0.542719 0.267189 
0.406834 -0.566512 0.340185 
0.406845 -0.585270 0.407403 
0.406849 -0.542750 0.250252 
0.406853 -0.560467 0.290429 
0.406858 -0.585290 0.395129 
0.406866 -0.585302 0.399213 
0.406872 -0.531370 0.163775 
0.406873 -0.531371 0.198252 
0.406898 -0.514846 0.213231 
0.406914 -0.525833 0.168871 
0.406914 -0.509490 0.135635 
0.406925 -0.531439 0.201459 
0.406936 -0.542866 0.246948 
0.406953 -0.572837 0.369707 
0.406967 -0.554636 0.313517 
0.406968 -0.531496 0.204670 
0.406986 -0.618638 0.518522 
0.406990 -0.554668 0.277967 
0.407010 -0.520437 0.177042 
0.407011 -0.566758 0.344110 
0.407023 -0.531568 0.166936 
0.407031 -0.531577 0.224026 
0.407041 -0.531591 0.214329 
0.407061 -0.605183 0.501278 
0.407092 -0.526063 0.150525 
0.407097 -0.515099 0.133586 
0.407125 -0.520584 0.180186 
0.407171 -0.566981 0.336704 
0.407174 -0.605350 0.492099 
0.407190 -0.515216 0.142593 
0.407216 -0.573207 0.385762 
0.407247 -0.515288 0.194560 
0.407251 -0.573256 0.389796 
0.407259 -0.598842 0.483911 
0.407265 -0.585875 0.416126 
0.407280 -0.509948 0.132789 
0.407290 -0.592351 0.453581 
0.407292 -0.543341 0.281281 
0.407293 -0.526322 0.200306 
0.407309 -0.585939 0.412009 
0.407314 -0.543370 0.253910 
0.407327 -0.561120 0.308722 
0.407364 -0.515437 0.200869 
0.407406 -0.515489 0.145673 
0.407410 -0.526474 0.181501 
0.407446 -0.592578 0.449381 
0.407455 -0.515551 0.130720 
0.407455 -0.532132 0.198536 
0.407465 -0.573558 0.370173 
0.407467 -0.605785 0.478669 
0.407469 -0.543577 0.277937 
0.407471 -0.515571 0.210366 
0.407482 -0.521041 0.174157 
0.407511 -0.526604 0.184671 
0.407546 -0.586279 0.429036 
0.407547 -0.592725 0.427961 
0.407549 -0.573676 0.374178 
0.407563 -0.655414 0.555631 
0.407577 -0.561465 0.305291 
0.407579 -0.543723 0.243985 
0.407590 -0.592787 0.445186 
0.407593 -0.561487 0.287405 
0.407603 -0.561501 0.312566 
0.407606 -0.532329 0.211406 
0.407619 -0.521216 0.199153 
0.407620 -0.573775 0.378192 
0.407621 -0.532348 0.221103 
0.407636 -0.543800 0.274596 
0.407658 -0.599428 0.493589 
0.407669 -0.521280 0.202331 
0.407686 -0.526830 0.191026 
0.407692 -0.606121 0.474390 
0.407693 -0.606122 0.483506 
0.407696 -0.567712 0.337139 
0.407700 -0.586501 0.420758 
0.407703 -0.586506 0.442029 
0.407742 -0.532507 0.186007 
0.407765 -0.555724 0.317772 
0.407767 -0.543975 0.257579 
0.407769 -0.515949 0.191692 
0.407772 -0.555734 0.310513 
0.407774 -0.619836 0.514716 
0.407795 -0.599631 0.435731 
0.407803 -0.586650 0.412509 
0.407804 -0.544024 0.292119 
0.407817 -0.606306 0.497528 
0.407819 -0.606309 0.461052 
0.407824 -0.527008 0.197400 
0.407827 -0.586684 0.437863 
0.407855 -0.586724 0.404289 
0.407886 -0.620007 0.519669 
0.407891 -0.527095 0.178595 
0.407925 -0.527139 0.203792 
0.407933 -0.606479 0.479217 
0.407946 -0.521634 0.171269 
0.407948 -0.561976 0.334966 
0.407974 -0.599893 0.480194 
0.407974 -0.544251 0.250944 
0.407978 -0.574280 0.370638 
0.407982 -0.620154 0.524634 
0.407988 -0.527221 0.210203 
0.408013 -0.544302 0.288759 
0.408030 -0.532883 0.237680 
0.408056 -0.562124 0.327614 
0.408080 -0.544392 0.264589 
0.408083 -0.521809 0.193091 
0.408083 -0.516347 0.217032 
0.408126 -0.533008 0.231163 
0.408136 -0.544466 0.295881 
0.408142 -0.562242 0.338870 
0.408151 -0.521895 0.196264 
0.408159 -0.533052 0.227910 
0.408163 -0.533056 0.208478 
0.408186 -0.533086 0.211706 
0.408187 -0.574574 0.382690 
0.408192 -0.527485 0.188118 
0.408198 -0.533102 0.221416 
0.408203 -0.593679 0.441520 
0.408204 -0.533109 0.218175 
0.408207 -0.562333 0.369483 
0.408227 -0.568451 0.364329 
0.408232 -0.533146 0.183079 
0.408251 -0.587294 0.417134 
0.408264 -0.574682 0.390766 
0.408284 -0.516600 0.188821 
0.408298 -0.522084 0.205809 
0.408323 -0.562492 0.342783 
0.408347 -0.527685 0.194491 
0.408351 -0.544754 0.271628 
0.408356 -0.562537 0.302261 
0.408356 -0.600455 0.462624 
0.408411 -0.527767 0.197684 
0.408426 -0.587545 0.434222 
0.408428 -0.600561 0.471666 
0.408457 -0.664403 0.561473 
0.408478 -0.607289 0.522061 
0.408525 -0.587687 0.430066 
0.408544 -0.550857 0.280588 
0.408545 -0.527941 0.207292 
0.408565 -0.545039 0.289150 
0.408570 -0.556821 0.307502 
0.408572 -0.575115 0.375117 
0.408573 -0.621051 0.535182 
0.408579 -0.545058 0.278695 
0.408589 -0.527997 0.213719 
0.408594 -0.516992 0.204623 
0.408596 -0.528006 0.216939 
0.408620 -0.621122 0.540184 
0.408627 -0.545122 0.247974 
0.408657 -0.533701 0.234749 
0.408693 -0.517117 0.182800 
0.408714 -0.533775 0.180148 
0.408739 -0.575352 0.387205 
0.408741 -0.569168 0.349382 
0.408749 -0.545284 0.275345 
0.408764 -0.545305 0.285789 
0.408769 -0.545311 0.261618 
0.408778 -0.533860 0.215244 
0.408785 -0.517234 0.140142 
0.408791 -0.517242 0.185946 
0.408803 -0.563153 0.331933 
0.408807 -0.594557 0.437854 
0.408818 -0.557159 0.304083 
0.408827 -0.588122 0.409388 
0.408834 -0.607818 0.517708 
0.408865 -0.588177 0.451980 
0.408892 -0.563276 0.324580 
0.408906 -0.545494 0.292909 
0.408908 -0.545497 0.271998 
0.408911 -0.551353 0.284343 
0.408916 -0.522874 0.209301 
0.408936 -0.522900 0.212500 
0.408936 -0.563337 0.317250 
0.408954 -0.545558 0.282430 
0.408958 -0.621636 0.530772 
0.409011 -0.522996 0.184137 
0.409017 -0.642995 0.548620 
0.409018 -0.563449 0.347151 
0.409019 -0.588398 0.447791 
0.409044 -0.563485 0.362482 
0.409052 -0.601479 0.495277 
0.409058 -0.545697 0.268655 
0.409109 -0.601561 0.467952 
0.409129 -0.601592 0.486133 
0.409130 -0.528696 0.207588 
0.409148 -0.601619 0.477024 
0.409150 -0.569737 0.361272 
0.409150 -0.575930 0.379611 
0.409150 -0.563632 0.366448 
0.409159 -0.588600 0.443607 
0.409160 -0.517709 0.137264 
0.409173 -0.563663 0.351086 
0.409176 -0.608327 0.513360 
0.409181 -0.528763 0.182290 
0.409183 -0.517738 0.179923 
0.409188 -0.534394 0.177213 
0.409198 -0.563697 0.339747 
0.409198 -0.545884 0.265314 
0.409230 -0.534450 0.271973 
0.409231 -0.534450 0.235079 
0.409247 -0.576066 0.387686 
0.409257 -0.517831 0.220853 
0.409267 -0.551832 0.288109 
0.409269 -0.551835 0.277593 
0.409280 -0.528891 0.185473 
0.409289 -0.576125 0.403929 
0.409304 -0.601849 0.463699 
0.409305 -0.546026 0.275720 
0.409317 -0.546043 0.286175 
0.409333 -0.563884 0.332364 
0.409345 -0.534601 0.212308 
0.409348 -0.588871 0.452514 
0.409361 -0.608602 0.504111 
0.409380 -0.601961 0.481850 
0.409383 -0.534650 0.268663 
0.409399 -0.595419 0.434186 
0.409447 -0.564040 0.358982 
0.409465 -0.546240 0.272369 
0.409475 -0.523588 0.206402 
0.409487 -0.602118 0.459451 
0.409487 -0.608789 0.494895 
0.409493 -0.595556 0.496747 
0.409503 -0.589094 0.448321 
0.409503 -0.523625 0.209601 
0.409508 -0.546298 0.282812 
0.409521 -0.570253 0.377245 
0.409527 -0.518174 0.134384 
0.409533 -0.523663 0.216012 
0.409536 -0.564163 0.336270 
0.409546 -0.570288 0.357754 
0.409549 -0.576491 0.424915 
0.409554 -0.558162 0.283239 
0.409592 -0.589222 0.426939 
0.409594 -0.576555 0.376056 
0.409599 -0.558224 0.301065 
0.409616 -0.546441 0.269021 
0.409622 -0.558255 0.322890 
0.409661 -0.589322 0.457251 
0.409664 -0.529387 0.179371 
0.409666 -0.518349 0.177042 
0.409667 -0.589331 0.422789 
0.409669 -0.546512 0.289932 
0.409680 -0.529408 0.204670 
0.409689 -0.546539 0.279452 
0.409751 -0.558430 0.334097 
0.409774 -0.589484 0.439953 
0.409797 -0.602574 0.491540 
0.409810 -0.518531 0.208398 
0.409829 -0.558537 0.297646 
0.409840 -0.564581 0.355484 
0.409850 -0.535260 0.232139 
0.409855 -0.558572 0.326761 
0.409863 -0.564614 0.332794 
0.409866 -0.518602 0.167886 
0.409877 -0.570748 0.369707 
0.409911 -0.623085 0.536934 
0.409913 -0.535342 0.225613 
0.409948 -0.535387 0.269034 
0.409959 -0.529768 0.188932 
0.409962 -0.570867 0.373708 
0.409969 -0.564759 0.359440 
0.409978 -0.602840 0.510492 
0.410002 -0.535458 0.252159 
0.410063 -0.547037 0.283195 
0.410086 -0.564921 0.363405 
0.410092 -0.535575 0.265722 
0.410096 -0.535581 0.248867 
0.410118 -0.524412 0.219537 
0.410123 -0.609735 0.500343 
0.410130 -0.589997 0.444660 
0.410181 -0.565052 0.329320 
0.410184 -0.577384 0.417206 
0.410198 -0.571196 0.393838 
0.410200 -0.508253 0.153803 
0.410223 -0.530109 0.201747 
0.410245 -0.547280 0.279830 
0.410267 -0.530166 0.230837 
0.410282 -0.559153 0.280215 
0.410296 -0.571333 0.366176 
0.410305 -0.559186 0.345812 
0.410315 -0.603335 0.473845 
0.410322 -0.535876 0.239015 
0.410351 -0.535914 0.259109 
0.410363 -0.565302 0.355938 
0.410372 -0.559277 0.298041 
0.410422 -0.610180 0.510156 
0.410424 -0.547519 0.286949 
0.410430 -0.565395 0.344552 
0.410435 -0.610198 0.534306 
0.410453 -0.571550 0.354687 
0.410462 -0.536059 0.229196 
0.410466 -0.536064 0.255807 
0.410477 -0.571584 0.374178 
0.410489 -0.565476 0.325848 
0.410543 -0.597082 0.470577 
0.410548 -0.571684 0.378192 
0.410559 -0.603694 0.478669 
0.410589 -0.597149 0.502746 
0.410593 -0.559578 0.294621 
0.410603 -0.525031 0.129569 
0.410609 -0.559600 0.331072 
0.410610 -0.603770 0.456270 
0.410619 -0.577997 0.421826 
0.410657 -0.610528 0.520017 
0.410658 -0.536314 0.266089 
0.410662 -0.603846 0.520899 
0.410663 -0.559674 0.342340 
0.410667 -0.536326 0.249214 
0.410703 -0.631296 0.542193 
0.410710 -0.571909 0.402440 
0.410718 -0.597336 0.493589 
0.410741 -0.519709 0.174412 
0.410747 -0.565831 0.352436 
0.410747 -0.590884 0.440998 
0.410749 -0.603974 0.525834 
0.410753 -0.536438 0.245922 
0.410765 -0.603997 0.506736 
0.410773 -0.547985 0.290713 
0.410787 -0.565886 0.322377 
0.410787 -0.597437 0.484466 
0.410793 -0.536491 0.262777 
0.410831 -0.519823 0.152976 
0.410867 -0.553991 0.307095 
0.410880 -0.530957 0.227910 
0.410886 -0.566023 0.356392 
0.410899 -0.604195 0.511639 
0.410918 -0.519933 0.165242 
0.410953 -0.536699 0.236068 
0.410955 -0.591183 0.449910 
0.410997 -0.566175 0.383838 
0.411001 -0.560134 0.277186 
0.411013 -0.566198 0.360356 
0.411017 -0.520058 0.156095 
0.411018 -0.604369 0.516554 
0.411036 -0.597799 0.480194 
0.411043 -0.504003 0.201954 
0.411077 -0.604456 0.502411 
0.411105 -0.591399 0.458863 
0.411120 -0.572479 0.382690 
0.411141 -0.536945 0.252859 
0.411197 -0.572587 0.390766 
0.411204 -0.525799 0.204085 
0.411204 -0.611342 0.525545 
0.411209 -0.520301 0.171520 
0.411227 -0.560442 0.302261 
0.411233 -0.591584 0.441520 
0.411234 -0.578863 0.414111 
0.411241 -0.520342 0.150084 
0.411272 -0.560503 0.309536 
0.411274 -0.578919 0.410009 
0.411279 -0.591649 0.454649 
0.411289 -0.525908 0.220163 
0.411290 -0.525910 0.216939 
0.411324 -0.537184 0.246264 
0.411350 -0.560609 0.291589 
0.411361 -0.520494 0.162349 
0.411399 -0.591822 0.463624 
0.411401 -0.537285 0.242971 
0.411425 -0.572905 0.371104 
0.411460 -0.560759 0.328041 
0.411460 -0.566814 0.380304 
0.411464 -0.598422 0.489862 
0.411473 -0.605039 0.470657 
0.411484 -0.531739 0.224978 
0.411486 -0.537396 0.259826 
0.411512 -0.566885 0.384319 
0.411515 -0.520689 0.202915 
0.411519 -0.520694 0.165484 
0.411525 -0.560849 0.306097 
0.411541 -0.605138 0.502978 
0.411543 -0.560873 0.339308 
0.411552 -0.560885 0.288170 
0.411559 -0.526253 0.191577 
0.411576 -0.566973 0.404509 
0.411584 -0.520776 0.209301 
0.411596 -0.504681 0.199114 
0.411614 -0.579398 0.422848 
0.411646 -0.567070 0.349382 
0.411649 -0.567074 0.364791 
0.411662 -0.555061 0.304083 
0.411669 -0.520883 0.168625 
0.411681 -0.579492 0.418728 
0.411689 -0.605356 0.507876 
0.411707 -0.573297 0.391250 
0.411730 -0.573330 0.399365 
0.411732 -0.612127 0.531092 
0.411743 -0.573347 0.363561 
0.411748 -0.526496 0.201170 
0.411765 -0.532101 0.244896 
0.411793 -0.549345 0.316516 
0.411796 -0.567276 0.353336 
0.411796 -0.521045 0.159453 
0.411803 -0.579664 0.406410 
0.411804 -0.555253 0.293448 
0.411827 -0.515642 0.230463 
0.411838 -0.567334 0.341939 
0.411841 -0.592458 0.437854 
0.411861 -0.515684 0.227256 
0.411861 -0.526640 0.223709 
0.411870 -0.526651 0.214024 
0.411872 -0.532240 0.196170 
0.411882 -0.561335 0.335835 
0.411893 -0.561350 0.347151 
0.411902 -0.555385 0.300666 
0.411919 -0.612405 0.516801 
0.411949 -0.592614 0.433671 
0.411963 -0.521256 0.162587 
0.411966 -0.555471 0.315176 
0.412031 -0.633336 0.543946 
0.412048 -0.549686 0.320354 
0.412060 -0.521378 0.200017 
0.412070 -0.526907 0.188661 
0.412071 -0.549717 0.313103 
0.412081 -0.532510 0.222043 
0.412098 -0.561630 0.288553 
0.412145 -0.573907 0.360024 
0.412161 -0.532613 0.251808 
0.412171 -0.538291 0.256870 
0.412187 -0.573966 0.387686 
0.412195 -0.521549 0.212805 
0.412204 -0.561774 0.374405 
0.412213 -0.549905 0.295278 
0.412219 -0.599519 0.477024 
0.412255 -0.516177 0.240449 
0.412277 -0.580331 0.411009 
0.412279 -0.538432 0.253559 
0.412285 -0.527182 0.198252 
0.412292 -0.561893 0.285132 
0.412303 -0.561908 0.325003 
0.412316 -0.580386 0.394644 
0.412318 -0.516257 0.237227 
0.412322 -0.580394 0.402812 
0.412325 -0.580399 0.398724 
0.412392 -0.532912 0.193231 
0.412399 -0.521808 0.159686 
0.412409 -0.521820 0.172020 
0.412415 -0.532941 0.241958 
0.412431 -0.568151 0.377245 
0.412456 -0.527401 0.214329 
0.412475 -0.516454 0.224374 
0.412535 -0.593456 0.430007 
0.412536 -0.533098 0.235408 
0.412567 -0.613368 0.527287 
0.412578 -0.562284 0.351536 
0.412599 -0.550420 0.306282 
0.412609 -0.568396 0.401448 
0.412612 -0.538867 0.274221 
0.412617 -0.550445 0.313517 
0.412621 -0.538879 0.260543 
0.412629 -0.533218 0.255453 
0.412644 -0.562374 0.370891 
0.412657 -0.533255 0.212608 
0.412659 -0.593635 0.478538 
0.412669 -0.533269 0.215853 
0.412679 -0.580897 0.419743 
0.412679 -0.556434 0.297646 
0.412698 -0.568519 0.350274 
0.412743 -0.574740 0.396281 
0.412745 -0.562511 0.332794 
0.412764 -0.550640 0.295672 
0.412781 -0.556571 0.312155 
0.412785 -0.522295 0.222757 
0.412786 -0.562566 0.344110 
0.412790 -0.568645 0.369707 
0.412814 -0.527859 0.195330 
0.412830 -0.533477 0.248867 
0.412839 -0.593893 0.465247 
0.412847 -0.550752 0.302875 
0.412851 -0.562656 0.359440 
0.412876 -0.568763 0.373708 
0.412887 -0.550805 0.310102 
0.412887 -0.593963 0.483355 
0.412891 -0.593969 0.452030 
0.412892 -0.593970 0.474283 
0.412927 -0.581246 0.432666 
0.412936 -0.613916 0.522903 
0.412951 -0.607212 0.523803 
0.412960 -0.517061 0.234342 
0.413029 -0.528133 0.211406 
0.413044 -0.528152 0.221103 
0.413048 -0.528158 0.217866 
0.413055 -0.600736 0.510492 
0.413057 -0.575177 0.356937 
0.413057 -0.533771 0.239015 
0.413065 -0.569024 0.346764 
0.413092 -0.569061 0.389796 
0.413107 -0.581500 0.424382 
0.413135 -0.551136 0.321199 
0.413138 -0.563046 0.321959 
0.413147 -0.551151 0.306689 
0.413163 -0.551173 0.313932 
0.413166 -0.563085 0.314620 
0.413170 -0.575335 0.384599 
0.413251 -0.551291 0.354861 
0.413260 -0.522896 0.178595 
0.413280 -0.581743 0.412009 
0.413310 -0.569361 0.370173 
0.413322 -0.528509 0.244212 
0.413336 -0.581822 0.399701 
0.413371 -0.523037 0.181764 
0.413375 -0.551457 0.325054 
0.413383 -0.523053 0.219850 
0.413394 -0.569478 0.374178 
0.413404 -0.534219 0.249214 
0.413427 -0.551525 0.317772 
0.413434 -0.551535 0.310513 
0.413466 -0.569577 0.378192 
0.413490 -0.534331 0.245922 
0.413494 -0.563531 0.363867 
0.413496 -0.507011 0.206293 
0.413512 -0.594862 0.461549 
0.413520 -0.582081 0.429036 
0.413572 -0.594949 0.488744 
0.413591 -0.594975 0.470577 
0.413593 -0.528854 0.208478 
0.413598 -0.563673 0.367845 
0.413604 -0.551761 0.328919 
0.413605 -0.569769 0.390281 
0.413626 -0.569797 0.394326 
0.413634 -0.569808 0.398380 
0.413636 -0.551804 0.299868 
0.413674 -0.517955 0.221805 
0.413691 -0.534591 0.236068 
0.413723 -0.576105 0.409509 
0.413735 -0.582384 0.416630 
0.413739 -0.523503 0.175685 
0.413748 -0.615124 0.519096 
0.413749 -0.576140 0.405418 
0.413762 -0.512666 0.198288 
0.413773 -0.608420 0.520017 
0.413775 -0.563915 0.356392 
0.413783 -0.557922 0.327614 
0.413784 -0.595253 0.507624 
0.413786 -0.523563 0.197684 
0.413794 -0.576203 0.434728 
0.413799 -0.595275 0.466329 
0.413834 -0.534776 0.219721 
0.413847 -0.558009 0.320284 
0.413881 -0.534836 0.252859 
0.413901 -0.540549 0.271628 
0.413939 -0.523756 0.226624 
0.413965 -0.564173 0.318908 
0.413974 -0.523800 0.216939 
0.413975 -0.529343 0.241282 
0.414013 -0.595583 0.448869 
0.414019 -0.564247 0.364329 
0.414039 -0.529425 0.238013 
0.414052 -0.540747 0.268288 
0.414070 -0.595664 0.471122 
0.414087 -0.595689 0.480194 
0.414091 -0.558337 0.324157 
0.414094 -0.558341 0.377441 
0.414121 -0.564387 0.368310 
0.414138 -0.529551 0.231488 
0.414139 -0.570504 0.394815 
0.414145 -0.552483 0.329350 
0.414162 -0.524038 0.188389 
0.414173 -0.529596 0.228231 
0.414175 -0.595816 0.457850 
0.414176 -0.552525 0.351852 
0.414186 -0.552538 0.300267 
0.414189 -0.576753 0.414111 
0.414213 -0.552574 0.340571 
0.414228 -0.576808 0.410009 
0.414238 -0.595907 0.494152 
0.414274 -0.518706 0.218911 
0.414279 -0.595965 0.466870 
0.414301 -0.513335 0.195412 
0.414317 -0.583203 0.408892 
0.414317 -0.524234 0.194770 
0.414324 -0.596031 0.475928 
0.414342 -0.524266 0.239930 
0.414372 -0.629865 0.542777 
0.414386 -0.535489 0.226565 
0.414406 -0.535515 0.223295 
0.414429 -0.564806 0.360814 
0.414444 -0.564826 0.388342 
0.414491 -0.577174 0.426976 
0.414498 -0.616240 0.539596 
0.414519 -0.596310 0.489862 
0.414557 -0.553033 0.348385 
0.414571 -0.577286 0.422848 
0.414582 -0.524569 0.253327 
0.414665 -0.583692 0.443081 
0.414675 -0.530238 0.235079 
0.414691 -0.565163 0.353336 
0.414692 -0.577454 0.414615 
0.414710 -0.596585 0.494715 
0.414711 -0.553238 0.352306 
0.414720 -0.530296 0.231814 
0.414729 -0.508522 0.210061 
0.414744 -0.577527 0.390091 
0.414747 -0.508544 0.213231 
0.414751 -0.553292 0.341014 
0.414759 -0.541671 0.265314 
0.414766 -0.553311 0.322467 
0.414773 -0.524811 0.246791 
0.414776 -0.577572 0.402319 
0.414785 -0.596694 0.485577 
0.414815 -0.513971 0.243675 
0.414833 -0.513993 0.192532 
0.414840 -0.524896 0.191853 
0.414867 -0.541812 0.275720 
0.414885 -0.596837 0.499579 
0.414897 -0.577739 0.431628 
0.414897 -0.536148 0.233442 
0.414929 -0.525008 0.260240 
0.414954 -0.536222 0.270516 
0.414974 -0.530620 0.248521 
0.414987 -0.525082 0.237012 
0.414988 -0.559547 0.370422 
0.414992 -0.596991 0.490421 
0.415003 -0.553628 0.326334 
0.415022 -0.542014 0.293304 
0.415027 -0.597041 0.472211 
0.415039 -0.597059 0.481298 
0.415043 -0.553682 0.304486 
0.415044 -0.597066 0.504456 
0.415071 -0.559659 0.374405 
0.415075 -0.553723 0.311745 
0.415093 -0.553748 0.348835 
0.415103 -0.536415 0.267189 
0.415109 -0.519751 0.245406 
0.415141 -0.578079 0.419236 
0.415168 -0.509060 0.197712 
0.415200 -0.530910 0.238681 
0.415242 -0.536595 0.263864 
0.415256 -0.565933 0.373239 
0.415257 -0.542321 0.279452 
0.415260 -0.597377 0.486133 
0.415263 -0.525431 0.250407 
0.415275 -0.525447 0.148487 
0.415279 -0.597404 0.477024 
0.415339 -0.554075 0.308316 
0.415339 -0.531088 0.228874 
0.415362 -0.536750 0.274221 
0.415366 -0.531122 0.225613 
0.415371 -0.536762 0.260543 
0.415403 -0.584731 0.435260 
0.415437 -0.525651 0.243869 
0.415438 -0.597632 0.463699 
0.415442 -0.566187 0.385281 
0.415460 -0.520191 0.216321 
0.415465 -0.554244 0.345366 
0.415479 -0.514794 0.240791 
0.415491 -0.578567 0.428006 
0.415502 -0.566268 0.393349 
0.415506 -0.584876 0.431096 
0.415516 -0.536949 0.230482 
0.415545 -0.554351 0.326761 
0.415548 -0.531354 0.265722 
0.415561 -0.572462 0.416698 
0.415592 -0.554414 0.304889 
0.415606 -0.554432 0.319447 
0.415606 -0.520373 0.249006 
0.415616 -0.560393 0.332794 
0.415624 -0.525888 0.234090 
0.415629 -0.525894 0.257317 
0.415635 -0.542815 0.283195 
0.415638 -0.531469 0.245580 
0.415640 -0.554477 0.337993 
0.415660 -0.572600 0.392220 
0.415673 -0.525950 0.145564 
0.415714 -0.531567 0.242296 
0.415756 -0.598090 0.477572 
0.415763 -0.560592 0.386887 
0.415769 -0.554650 0.330642 
0.415780 -0.585263 0.439953 
0.415796 -0.543025 0.290322 
0.415809 -0.618187 0.536350 
0.415820 -0.543056 0.279830 
0.415820 -0.560668 0.336704 
0.415824 -0.560674 0.348043 
0.415826 -0.598191 0.500712 
0.415838 -0.531725 0.235738 
0.415863 -0.526190 0.186007 
0.415912 -0.543177 0.297476 
0.415947 -0.560840 0.367379 
0.415951 -0.531869 0.225930 
0.415962 -0.520819 0.203792 
0.415980 -0.554931 0.334532 
0.415984 -0.598419 0.473300 
0.415997 -0.585567 0.448851 
0.416002 -0.554960 0.345812 
0.416012 -0.560927 0.340624 
0.416033 -0.531975 0.252509 
0.416088 -0.555075 0.327187 
0.416091 -0.537691 0.271257 
0.416117 -0.573229 0.413104 
0.416125 -0.598622 0.496403 
0.416135 -0.515607 0.237902 
0.416139 -0.543473 0.294093 
0.416142 -0.585772 0.444660 
0.416155 -0.573281 0.409009 
0.416191 -0.561168 0.344552 
0.416232 -0.543594 0.301264 
0.416254 -0.526685 0.231163 
0.416258 -0.532262 0.262777 
0.416274 -0.585957 0.484829 
0.416296 -0.598868 0.501278 
0.416326 -0.537995 0.278316 
0.416355 -0.543755 0.290713 
0.416411 -0.567507 0.358662 
0.416416 -0.605624 0.519440 
0.416433 -0.567537 0.382213 
0.416438 -0.555542 0.316420 
0.416468 -0.532530 0.232791 
0.416503 -0.532575 0.256162 
0.416508 -0.573767 0.421826 
0.416513 -0.521509 0.200882 
0.416520 -0.555652 0.334966 
0.416546 -0.532630 0.269775 
0.416562 -0.544025 0.287335 
0.416573 -0.573857 0.417713 
0.416575 -0.555725 0.361558 
0.416577 -0.580078 0.424894 
0.416589 -0.599288 0.511065 
0.416591 -0.605878 0.529339 
0.416596 -0.521612 0.207292 
0.416597 -0.599300 0.496966 
0.416610 -0.532712 0.252859 
0.416622 -0.521646 0.210503 
0.416623 -0.573926 0.385076 
0.416625 -0.573928 0.413607 
0.416643 -0.586477 0.458326 
0.416662 -0.573979 0.389129 
0.416675 -0.521711 0.252973 
0.416689 -0.574017 0.405418 
0.416702 -0.574034 0.401334 
0.416708 -0.532837 0.249560 
0.416709 -0.538490 0.282047 
0.416718 -0.555916 0.338870 
0.416765 -0.561943 0.383838 
0.416768 -0.586653 0.440998 
0.416783 -0.516409 0.235009 
0.416796 -0.532950 0.246264 
0.416811 -0.538622 0.268288 
0.416816 -0.599614 0.520899 
0.416848 -0.556089 0.354122 
0.416877 -0.538708 0.289150 
0.416881 -0.516531 0.254809 
0.416885 -0.599714 0.492658 
0.416888 -0.586822 0.436816 
0.416894 -0.568166 0.378665 
0.416898 -0.562122 0.364329 
0.416903 -0.556163 0.342783 
0.416920 -0.599764 0.506736 
0.416940 -0.556212 0.324157 
0.416942 -0.533137 0.239683 
0.416953 -0.568245 0.382690 
0.416960 -0.533160 0.259826 
0.416973 -0.606434 0.524964 
0.416976 -0.599845 0.530779 
0.416979 -0.586950 0.449910 
0.416984 -0.556270 0.358066 
0.417031 -0.568352 0.390766 
0.417050 -0.568379 0.394815 
0.417056 -0.522189 0.197968 
0.417065 -0.538950 0.275345 
0.417085 -0.516784 0.248306 
0.417089 -0.533325 0.229839 
0.417118 -0.544752 0.312688 
0.417123 -0.544757 0.287722 
0.417199 -0.574720 0.405914 
0.417214 -0.574740 0.397747 
0.417234 -0.522411 0.214024 
0.417237 -0.600221 0.502411 
0.417244 -0.522424 0.182290 
0.417257 -0.556635 0.339308 
0.417272 -0.517016 0.162587 
0.417320 -0.545015 0.284343 
0.417326 -0.539288 0.300055 
0.417345 -0.522551 0.185473 
0.417366 -0.562752 0.400456 
0.417367 -0.600408 0.526418 
0.417389 -0.600439 0.507306 
0.417390 -0.581211 0.434222 
0.417392 -0.539373 0.314422 
0.417423 -0.517202 0.232111 
0.417429 -0.587584 0.463624 
0.417454 -0.533791 0.243309 
0.417458 -0.539459 0.279073 
0.417475 -0.545217 0.291495 
0.417495 -0.587676 0.481688 
0.417508 -0.545261 0.280967 
0.417510 -0.569005 0.411592 
0.417518 -0.517320 0.219224 
0.417523 -0.539543 0.265314 
0.417535 -0.533895 0.260184 
0.417559 -0.533926 0.284242 
0.417575 -0.517391 0.251910 
0.417583 -0.533956 0.236727 
0.417595 -0.614040 0.534597 
0.417619 -0.587851 0.446238 
0.417620 -0.587852 0.459400 
0.417645 -0.539700 0.286175 
0.417651 -0.545447 0.305875 
0.417655 -0.534048 0.256870 
0.417656 -0.528459 0.158616 
0.417711 -0.587980 0.468399 
0.417714 -0.517563 0.159686 
0.417714 -0.587985 0.486507 
0.417736 -0.523041 0.179371 
0.417745 -0.600951 0.522061 
0.417750 -0.534170 0.280899 
0.417771 -0.557320 0.351086 
0.417797 -0.588102 0.455182 
0.417815 -0.545661 0.295278 
0.417841 -0.563394 0.361272 
0.417893 -0.545764 0.324201 
0.417916 -0.588269 0.464165 
0.417917 -0.588270 0.491338 
0.417925 -0.534393 0.287978 
0.417941 -0.545826 0.316935 
0.417944 -0.545830 0.309691 
0.417961 -0.588333 0.450970 
0.417979 -0.557598 0.343667 
0.417980 -0.534465 0.263864 
0.418023 -0.575854 0.423360 
0.418029 -0.607969 0.536069 
0.418035 -0.569721 0.387686 
0.418050 -0.528957 0.228874 
0.418055 -0.517986 0.229209 
0.418056 -0.569749 0.408009 
0.418078 -0.569779 0.403929 
0.418081 -0.528997 0.155676 
0.418102 -0.534620 0.274221 
0.418109 -0.601475 0.517708 
0.418115 -0.518059 0.216321 
0.418123 -0.540318 0.297077 
0.418142 -0.546089 0.299071 
0.418191 -0.523609 0.195330 
0.418221 -0.523647 0.176449 
0.418225 -0.588704 0.477986 
0.418228 -0.540453 0.311444 
0.418228 -0.540453 0.262335 
0.418236 -0.576147 0.402812 
0.418237 -0.576150 0.436295 
0.418249 -0.588738 0.442565 
0.418259 -0.529222 0.265722 
0.418261 -0.518241 0.249006 
0.418270 -0.582436 0.439430 
0.418279 -0.557998 0.366913 
0.418287 -0.588791 0.455716 
0.418294 -0.601741 0.527586 
0.418403 -0.564150 0.397395 
0.418444 -0.576435 0.428006 
0.418458 -0.546501 0.302875 
0.418458 -0.589032 0.482799 
0.418498 -0.529524 0.152732 
0.418498 -0.546554 0.310102 
0.418501 -0.535130 0.277937 
0.418567 -0.540891 0.290322 
0.418573 -0.518628 0.153876 
0.418584 -0.558404 0.359440 
0.418673 -0.535350 0.274596 
0.418674 -0.602288 0.523222 
0.418679 -0.518759 0.226303 
0.418682 -0.589347 0.469488 
0.418700 -0.518784 0.223074 
0.418703 -0.558564 0.363405 
0.418703 -0.518789 0.213414 
0.418708 -0.589384 0.478538 
0.418718 -0.524270 0.192404 
0.418750 -0.546882 0.321199 
0.418761 -0.546898 0.306689 
0.418774 -0.541159 0.286949 
0.418776 -0.564654 0.358208 
0.418777 -0.589481 0.456249 
0.418781 -0.583148 0.484270 
0.418835 -0.535557 0.271257 
0.418888 -0.535625 0.281664 
0.418895 -0.524491 0.257676 
0.418903 -0.558831 0.371361 
0.418912 -0.564837 0.393838 
0.418912 -0.541338 0.294093 
0.418918 -0.535664 0.254260 
0.418925 -0.541354 0.259350 
0.418929 -0.508343 0.239765 
0.418974 -0.530127 0.262777 
0.418986 -0.535751 0.267922 
0.419014 -0.622953 0.545474 
0.419028 -0.583492 0.470993 
0.419041 -0.602816 0.518862 
0.419046 -0.547269 0.317772 
0.419058 -0.589876 0.497314 
0.419071 -0.535859 0.278316 
0.419106 -0.547347 0.347485 
0.419113 -0.577357 0.441502 
0.419117 -0.571195 0.400842 
0.419178 -0.559197 0.391394 
0.419185 -0.530394 0.232791 
0.419186 -0.536006 0.295881 
0.419224 -0.547502 0.328919 
0.419238 -0.524921 0.189475 
0.419239 -0.577530 0.437340 
0.419244 -0.536080 0.274970 
0.419263 -0.547553 0.351398 
0.419301 -0.525000 0.173773 
0.419352 -0.577685 0.433185 
0.419378 -0.559464 0.352436 
0.419383 -0.536258 0.257933 
0.419394 -0.603324 0.514507 
0.419429 -0.590399 0.474831 
0.419475 -0.542064 0.294488 
0.419502 -0.571719 0.417713 
0.419509 -0.590510 0.511937 
0.419536 -0.542144 0.283960 
0.419560 -0.536484 0.268288 
0.419571 -0.547955 0.303680 
0.419577 -0.525345 0.145988 
0.419579 -0.559732 0.379827 
0.419590 -0.509145 0.236889 
0.419607 -0.548002 0.310923 
0.419610 -0.578041 0.420758 
0.419619 -0.571879 0.405418 
0.419625 -0.590675 0.516834 
0.419626 -0.536569 0.289150 
0.419628 -0.584327 0.445186 
0.419636 -0.584339 0.458326 
0.419641 -0.536588 0.278695 
0.419650 -0.559827 0.360356 
0.419673 -0.559858 0.387857 
0.419681 -0.531021 0.259826 
0.419691 -0.520012 0.259877 
0.419703 -0.565905 0.355137 
0.419716 -0.578187 0.412509 
0.419762 -0.559976 0.337573 
0.419832 -0.590966 0.493589 
0.419854 -0.578377 0.433703 
0.419865 -0.591012 0.466329 
0.419865 -0.572214 0.426460 
0.419871 -0.560122 0.368310 
0.419884 -0.548364 0.314761 
0.419914 -0.591081 0.475379 
0.419945 -0.572323 0.422337 
0.419970 -0.578537 0.446731 
0.419990 -0.531412 0.266822 
0.420009 -0.584858 0.481133 
0.420011 -0.572414 0.418221 
0.420023 -0.548546 0.344474 
0.420041 -0.560348 0.376298 
0.420055 -0.560367 0.356846 
0.420065 -0.572487 0.414111 
0.420143 -0.520573 0.263523 
0.420171 -0.542965 0.309280 
0.420196 -0.548771 0.337116 
0.420223 -0.585155 0.467854 
0.420232 -0.526165 0.268663 
0.420238 -0.560611 0.396410 
0.420241 -0.578910 0.438385 
0.420244 -0.509938 0.234008 
0.420277 -0.537401 0.265314 
0.420296 -0.560689 0.349382 
0.420299 -0.560693 0.364791 
0.420341 -0.504775 0.272097 
0.420372 -0.549002 0.300666 
0.420380 -0.531906 0.256870 
0.420388 -0.549022 0.341014 
0.420399 -0.537558 0.286175 
0.420403 -0.549041 0.322467 
0.420428 -0.549074 0.307909 
0.420438 -0.549087 0.315176 
0.420458 -0.579209 0.430066 
0.420490 -0.591892 0.499013 
0.420516 -0.521034 0.182553 
0.420538 -0.549218 0.333663 
0.420551 -0.591977 0.462624 
0.420569 -0.561053 0.376771 
0.420585 -0.543499 0.331491 
0.420595 -0.592040 0.489862 
0.420612 -0.579421 0.443081 
0.420618 -0.573240 0.410509 
0.420633 -0.561139 0.380782 
0.420642 -0.537868 0.300458 
0.420670 -0.605159 0.535481 
0.420679 -0.543620 0.324201 
0.420684 -0.579521 0.417638 
0.420685 -0.561207 0.384800 
0.420716 -0.561249 0.409073 
0.420729 -0.543686 0.309691 
0.420735 -0.549475 0.364119 
0.420744 -0.561286 0.405009 
0.420789 -0.592313 0.494715 
0.420798 -0.592326 0.508771 
0.420799 -0.585958 0.455182 
0.420831 -0.561403 0.365252 
0.420832 -0.532477 0.240350 
0.420893 -0.532554 0.237057 
0.420919 -0.586125 0.464165 
0.420956 -0.538269 0.304248 
0.420960 -0.527076 0.265722 
0.420964 -0.586188 0.450970 
0.420986 -0.538308 0.262335 
0.421012 -0.521649 0.179630 
0.421022 -0.561657 0.373239 
0.421071 -0.532780 0.253910 
0.421086 -0.549933 0.334097 
0.421097 -0.505682 0.269228 
0.421098 -0.561758 0.377245 
0.421112 -0.586394 0.459938 
0.421128 -0.592790 0.504456 
0.421158 -0.550027 0.360635 
0.421165 -0.538536 0.283195 
0.421193 -0.550073 0.326761 
0.421199 -0.586515 0.487066 
0.421210 -0.561909 0.385281 
0.421214 -0.592911 0.528428 
0.421230 -0.586558 0.477986 
0.421277 -0.550183 0.349285 
0.421279 -0.562000 0.401448 
0.421297 -0.522002 0.247483 
0.421419 -0.550369 0.330642 
0.421444 -0.593235 0.500146 
0.421445 -0.538895 0.297476 
0.421447 -0.522188 0.260964 
0.421462 -0.606299 0.526706 
0.421466 -0.544638 0.328489 
0.421500 -0.522254 0.176703 
0.421540 -0.544734 0.321199 
0.421551 -0.562363 0.373708 
0.421552 -0.544749 0.306689 
0.421557 -0.580722 0.426939 
0.421570 -0.550565 0.357151 
0.421594 -0.522371 0.271224 
0.421605 -0.593462 0.524081 
0.421612 -0.587090 0.447291 
0.421641 -0.527929 0.276423 
0.421656 -0.550677 0.345812 
0.421675 -0.539189 0.294093 
0.421678 -0.522474 0.224661 
0.421679 -0.527977 0.262777 
0.421686 -0.522485 0.254390 
0.421731 -0.580963 0.466220 
0.421736 -0.562610 0.385762 
0.421754 -0.533644 0.250944 
0.421770 -0.539310 0.301264 
0.421772 -0.562658 0.389796 
0.421783 -0.562672 0.406009 
0.421786 -0.545051 0.325054 
0.421807 -0.545079 0.303277 
0.421829 -0.593777 0.486689 
0.421835 -0.550911 0.338432 
0.421884 -0.587468 0.492463 
0.421912 -0.551013 0.369014 
0.421920 -0.575015 0.445671 
0.421955 -0.587567 0.474283 
0.421972 -0.551090 0.353668 
0.421997 -0.528375 0.156126 
0.422000 -0.607072 0.532260 
0.422010 -0.522886 0.274908 
0.422021 -0.539632 0.326767 
0.422060 -0.575206 0.441502 
0.422080 -0.594130 0.505596 
0.422089 -0.594143 0.482402 
0.422110 -0.551271 0.357609 
0.422128 -0.512224 0.228558 
0.422158 -0.523069 0.258034 
0.422174 -0.512280 0.222122 
0.422179 -0.587880 0.470032 
0.422190 -0.528617 0.171825 
0.422194 -0.534201 0.282047 
0.422215 -0.563249 0.382213 
0.422241 -0.539912 0.294488 
0.422271 -0.563323 0.410585 
0.422279 -0.588019 0.456783 
0.422292 -0.551509 0.327614 
0.422297 -0.563357 0.390281 
0.422302 -0.563365 0.406509 
0.422318 -0.563386 0.394326 
0.422321 -0.563390 0.402440 
0.422326 -0.563396 0.398380 
0.422334 -0.523287 0.268293 
0.422339 -0.540037 0.323348 
0.422349 -0.551583 0.365516 
0.422354 -0.569478 0.421826 
0.422382 -0.540093 0.316097 
0.422390 -0.528867 0.273472 
0.422429 -0.534498 0.247974 
0.422434 -0.588235 0.483911 
0.422448 -0.588254 0.452560 
0.422454 -0.594657 0.520319 
0.422497 -0.582018 0.471541 
0.422525 -0.563663 0.370638 
0.422536 -0.551827 0.373458 
0.422554 -0.534657 0.275345 
0.422569 -0.551870 0.342783 
0.422607 -0.551919 0.324157 
0.422613 -0.546120 0.300267 
0.422648 -0.621471 0.546062 
0.422650 -0.546167 0.322044 
0.422654 -0.529198 0.168871 
0.422683 -0.563873 0.378665 
0.422683 -0.546210 0.314761 
0.422719 -0.534866 0.271998 
0.422731 -0.582341 0.485388 
0.422748 -0.518355 0.277072 
0.422758 -0.512989 0.225660 
0.422759 -0.523814 0.271973 
0.422789 -0.564014 0.411089 
0.422821 -0.564057 0.390766 
0.422823 -0.546391 0.344474 
0.422831 -0.529419 0.150219 
0.422841 -0.564084 0.402937 
0.422854 -0.540697 0.342243 
0.422896 -0.540750 0.323775 
0.422910 -0.552316 0.320703 
0.422922 -0.582604 0.463083 
0.422940 -0.582628 0.490212 
0.422942 -0.540809 0.316516 
0.422942 -0.540809 0.309280 
0.422953 -0.535161 0.279073 
0.422984 -0.582688 0.504182 
0.422986 -0.552415 0.369953 
0.422989 -0.582695 0.472089 
0.422995 -0.582703 0.481133 
0.422996 -0.546615 0.337116 
0.423026 -0.529664 0.153394 
0.423028 -0.540919 0.291495 
0.423065 -0.524193 0.265356 
0.423066 -0.576577 0.442555 
0.423096 -0.535342 0.244999 
0.423110 -0.529768 0.165914 
0.423114 -0.552582 0.343225 
0.423114 -0.582868 0.458863 
0.423127 -0.582885 0.509051 
0.423133 -0.541054 0.327628 
0.423140 -0.541062 0.298672 
0.423142 -0.535401 0.286175 
0.423144 -0.552621 0.377919 
0.423159 -0.518858 0.220790 
0.423190 -0.546865 0.341014 
0.423196 -0.576754 0.438385 
0.423204 -0.541143 0.320354 
0.423218 -0.583011 0.485947 
0.423228 -0.541175 0.313103 
0.423259 -0.564642 0.415683 
0.423287 -0.535584 0.293304 
0.423295 -0.535594 0.272369 
0.423307 -0.564705 0.411592 
0.423312 -0.576912 0.434222 
0.423314 -0.564715 0.387205 
0.423326 -0.524517 0.293090 
0.423364 -0.564782 0.395304 
0.423370 -0.564789 0.399365 
0.423372 -0.589540 0.466870 
0.423397 -0.595984 0.521480 
0.423425 -0.577066 0.447261 
0.423437 -0.524654 0.228874 
0.423441 -0.609145 0.539008 
0.423446 -0.570951 0.418728 
0.423449 -0.553019 0.351086 
0.423482 -0.524710 0.222356 
0.423500 -0.524733 0.269034 
0.423501 -0.571025 0.414615 
0.423506 -0.547273 0.319028 
0.423508 -0.519286 0.274151 
0.423511 -0.589734 0.499013 
0.423525 -0.519307 0.240606 
0.423527 -0.535888 0.279452 
0.423548 -0.524792 0.289751 
0.423588 -0.519385 0.237346 
0.423609 -0.583550 0.446238 
0.423640 -0.519449 0.201747 
0.423670 -0.524943 0.171332 
0.423688 -0.589980 0.522912 
0.423702 -0.583678 0.468399 
0.423702 -0.536109 0.304248 
0.423728 -0.519557 0.281148 
0.423734 -0.583722 0.477434 
0.423739 -0.547574 0.341456 
0.423741 -0.525031 0.245580 
0.423743 -0.541833 0.350490 
0.423762 -0.541857 0.320776 
0.423763 -0.519600 0.217866 
0.423765 -0.596502 0.517131 
0.423770 -0.541867 0.306282 
0.423770 -0.541868 0.339244 
0.423776 -0.565331 0.416190 
0.423789 -0.583798 0.500466 
0.423790 -0.583799 0.455182 
0.423837 -0.553527 0.398471 
0.423854 -0.553548 0.362943 
0.423857 -0.536305 0.293699 
0.423892 -0.565486 0.399857 
0.423904 -0.519772 0.288172 
0.423951 -0.590348 0.513668 
0.423954 -0.536428 0.300861 
0.423955 -0.596770 0.527002 
0.423956 -0.584028 0.450970 
0.423971 -0.584048 0.473186 
0.423972 -0.584049 0.482244 
0.423991 -0.590403 0.499579 
0.423997 -0.530880 0.159992 
0.424012 -0.577866 0.426428 
0.424021 -0.553766 0.340185 
0.424059 -0.571778 0.411009 
0.424065 -0.590505 0.518577 
0.424065 -0.542246 0.310102 
0.424076 -0.525446 0.212909 
0.424077 -0.536583 0.290322 
0.424085 -0.548022 0.349285 
0.424088 -0.525460 0.219411 
0.424100 -0.584226 0.496181 
0.424119 -0.597000 0.512786 
0.424125 -0.542321 0.335801 
0.424131 -0.542329 0.347035 
0.424136 -0.525520 0.168387 
0.424143 -0.553925 0.374878 
0.424154 -0.590629 0.504456 
0.424193 -0.520126 0.198820 
0.424195 -0.536733 0.297476 
0.424204 -0.578129 0.439430 
0.424224 -0.584396 0.477986 
0.424239 -0.548221 0.353214 
0.424239 -0.520183 0.234419 
0.424269 -0.536826 0.304655 
0.424272 -0.554095 0.359440 
0.424274 -0.548266 0.372512 
0.424286 -0.536848 0.286949 
0.424332 -0.542587 0.306689 
0.424335 -0.525767 0.276423 
0.424339 -0.525771 0.286806 
0.424344 -0.520311 0.224661 
0.424351 -0.548365 0.376487 
0.424356 -0.554204 0.403009 
0.424359 -0.520330 0.221416 
0.424360 -0.520331 0.214939 
0.424376 -0.554230 0.348043 
0.424410 -0.525860 0.242634 
0.424427 -0.584677 0.505903 
0.424428 -0.578434 0.431096 
0.424445 -0.537050 0.330187 
0.424460 -0.584722 0.482799 
0.424478 -0.578502 0.470444 
0.424522 -0.537146 0.301264 
0.424571 -0.537209 0.308459 
0.424574 -0.566396 0.429553 
0.424589 -0.542915 0.303277 
0.424593 -0.597668 0.513360 
0.424601 -0.584916 0.460475 
0.424620 -0.542955 0.317772 
0.424655 -0.526164 0.209961 
0.424666 -0.566519 0.425430 
0.424679 -0.585024 0.487625 
0.424681 -0.543033 0.347485 
0.424685 -0.526200 0.216463 
0.424687 -0.585035 0.469488 
0.424694 -0.520741 0.285243 
0.424711 -0.597834 0.518285 
0.424728 -0.531794 0.303028 
0.424734 -0.526261 0.280133 
0.424737 -0.520793 0.195890 
0.424745 -0.566623 0.421314 
0.424755 -0.585128 0.501606 
0.424764 -0.537453 0.297875 
0.424771 -0.531849 0.163422 
0.424777 -0.591497 0.495840 
0.424777 -0.591497 0.509918 
0.424828 -0.572814 0.428521 
0.424844 -0.520924 0.292292 
0.424845 -0.554843 0.387372 
0.424881 -0.520970 0.231488 
0.424882 -0.585303 0.492463 
0.424890 -0.554902 0.395425 
0.424895 -0.598093 0.528171 
0.424899 -0.585326 0.465247 
0.424923 -0.624816 0.549001 
0.424943 -0.521046 0.224978 
0.424978 -0.532107 0.299653 
0.425013 -0.549222 0.346259 
0.425018 -0.521138 0.313592 
0.425023 -0.543470 0.332794 
0.425058 -0.537825 0.283960 
0.425060 -0.543517 0.344027 
0.425068 -0.585560 0.497314 
0.425071 -0.526679 0.239683 
0.425087 -0.567080 0.430072 
0.425094 -0.537871 0.323348 
0.425096 -0.585598 0.461012 
0.425112 -0.591964 0.505596 
0.425121 -0.526740 0.283855 
0.425166 -0.585694 0.516254 
0.425180 -0.567205 0.425945 
0.425222 -0.555335 0.356392 
0.425227 -0.526872 0.207009 
0.425233 -0.521401 0.244896 
0.425255 -0.592163 0.510492 
0.425260 -0.567311 0.421826 
0.425265 -0.549546 0.369483 
0.425273 -0.521451 0.192956 
0.425280 -0.585852 0.456783 
0.425281 -0.555412 0.379827 
0.425299 -0.532510 0.285789 
0.425335 -0.538175 0.327197 
0.425336 -0.555484 0.383838 
0.425360 -0.573531 0.446201 
0.425368 -0.585972 0.493026 
0.425380 -0.592337 0.515400 
0.425390 -0.586003 0.507050 
0.425405 -0.555574 0.391883 
0.425428 -0.543987 0.340571 
0.425451 -0.586086 0.452560 
0.425497 -0.532757 0.282430 
0.425516 -0.521748 0.228553 
0.425552 -0.521792 0.212308 
0.425577 -0.555799 0.368310 
0.425593 -0.549971 0.362020 
0.425629 -0.527370 0.175276 
0.425689 -0.580151 0.467309 
0.425693 -0.586421 0.479642 
0.425694 -0.567891 0.426460 
0.425700 -0.527458 0.284242 
0.425720 -0.586458 0.502746 
0.425724 -0.527488 0.236727 
0.425768 -0.580260 0.454115 
0.425769 -0.522059 0.296430 
0.425787 -0.544447 0.363654 
0.425847 -0.522154 0.303530 
0.425858 -0.522168 0.286024 
0.425887 -0.599488 0.510156 
0.425894 -0.527699 0.280899 
0.425914 -0.544609 0.329781 
0.425935 -0.556267 0.392372 
0.425965 -0.538972 0.320354 
