# .PCD v.7 - Point Cloud Data file format
VERSION .7
FIELDS x y z
SIZE 4 4 4
TYPE F F F
COUNT 1 1 1
WIDTH 1594
HEIGHT 1
POINTS 1594
DATA ascii
0.472460 -0.150739 0.008664 
0.472490 -0.150748 0.089691 
0.472522 -0.132326 0.017143 
0.472578 -0.156119 0.047930 
0.472585 -0.156121 0.085529 
0.472617 -0.161511 0.074651 
0.472652 -0.158828 0.037062 
0.472655 -0.156144 0.056722 
0.472669 -0.156149 0.072184 
0.472690 -0.140228 0.054005 
0.472697 -0.111748 0.090031 
0.472752 -0.156176 0.010871 
0.472772 -0.156183 0.045758 
0.472818 -0.145542 0.047643 
0.472824 -0.140267 0.075917 
0.472824 -0.156200 0.006526 
0.472851 -0.156209 0.063359 
0.472858 -0.150866 0.087526 
0.472885 -0.156220 0.054550 
0.472895 -0.135042 0.034397 
0.472911 -0.140293 0.051853 
0.472914 -0.161612 0.056949 
0.472920 -0.158918 0.090225 
0.472920 -0.161614 0.072471 
0.472934 -0.156236 0.083356 
0.472935 -0.150890 0.067568 
0.472941 -0.158925 0.032709 
0.472967 -0.158934 0.006540 
0.473012 -0.145602 0.045484 
0.473034 -0.145609 0.032447 
0.473071 -0.158969 0.030532 
0.473073 -0.140341 0.067163 
0.473095 -0.161674 0.006553 
0.473096 -0.148280 0.034676 
0.473097 -0.158978 0.070151 
0.473107 -0.156293 0.052376 
0.473111 -0.127289 0.045026 
0.473120 -0.150949 0.019520 
0.473123 -0.158987 0.076830 
0.473135 -0.148293 0.012992 
0.473137 -0.140360 0.073764 
0.473144 -0.161691 0.054768 
0.473161 -0.156311 0.087873 
0.473184 -0.148308 0.010828 
0.473196 -0.150974 0.017353 
0.473212 -0.150978 0.065401 
0.473217 -0.150980 0.085359 
0.473223 -0.127319 0.088623 
0.473235 -0.148324 0.032513 
0.473269 -0.156347 0.023949 
0.473282 -0.151001 0.034746 
0.473284 -0.135153 0.075765 
0.473297 -0.127338 0.042888 
0.473319 -0.156364 0.050202 
0.473327 -0.140417 0.047547 
0.473349 -0.140423 0.065009 
0.473350 -0.127353 0.082036 
0.473353 -0.145707 0.052063 
0.473366 -0.148365 0.030349 
0.473379 -0.135181 0.060455 
0.473383 -0.159074 0.067972 
0.473396 -0.151037 0.045667 
0.473422 -0.151045 0.032578 
0.473441 -0.140450 0.071610 
0.473446 -0.148390 0.076373 
0.473457 -0.159099 0.050302 
0.473473 -0.127386 0.040749 
0.473520 -0.156430 0.085698 
0.473540 -0.145765 0.039002 
0.473551 -0.148423 0.052167 
0.473552 -0.132615 0.015033 
0.473565 -0.145773 0.049901 
0.473568 -0.151092 0.083191 
0.473597 -0.135243 0.073616 
0.473610 -0.132631 0.012887 
0.473628 -0.135252 0.058306 
0.473648 -0.159163 0.085867 
0.473659 -0.159167 0.065793 
0.473660 -0.132645 0.010741 
0.473660 -0.159167 0.048122 
0.473684 -0.145809 0.019481 
0.473701 -0.132657 0.008594 
0.473717 -0.156495 0.045850 
0.473724 -0.137903 0.087005 
0.473726 -0.156498 0.090225 
0.473733 -0.151145 0.052272 
0.473734 -0.159192 0.056949 
0.473736 -0.140538 0.069455 
0.473760 -0.148489 0.074208 
0.473760 -0.145833 0.017318 
0.473763 -0.148490 0.050001 
0.473769 -0.145835 0.047739 
0.473777 -0.122286 0.051435 
0.473783 -0.145840 0.065270 
0.473791 -0.132682 0.088979 
0.473793 -0.156520 0.063486 
0.473795 -0.145843 0.085190 
0.473795 -0.109452 0.074852 
0.473796 -0.156521 0.004362 
0.473828 -0.145853 0.015155 
0.473850 -0.145860 0.056496 
0.473853 -0.159232 0.090403 
0.473855 -0.159232 0.045941 
0.473865 -0.140576 0.051958 
0.473871 -0.156546 0.083521 
0.473903 -0.156556 0.043673 
0.473904 -0.156557 0.070151 
0.473924 -0.104389 0.074700 
0.473927 -0.159257 0.063612 
0.473946 -0.151213 0.050102 
0.473954 -0.122332 0.066624 
0.473962 -0.148552 0.017353 
0.473967 -0.148554 0.047835 
0.473990 -0.122341 0.049300 
0.474030 -0.148573 0.015185 
0.474040 -0.159295 0.043760 
0.474046 -0.148578 0.056609 
0.474051 -0.145922 0.063107 
0.474077 -0.140639 0.049801 
0.474081 -0.145931 0.054332 
0.474083 -0.151256 0.036988 
0.474083 -0.138007 0.084851 
0.474096 -0.156620 0.088047 
0.474119 -0.145943 0.030349 
0.474125 -0.135394 0.030166 
0.474145 -0.145951 0.083026 
0.474150 -0.151278 0.047930 
0.474161 -0.132785 0.086831 
0.474162 -0.148615 0.045667 
0.474179 -0.148620 0.008682 
0.474186 -0.159344 0.061430 
0.474187 -0.159344 0.052585 
0.474193 -0.148624 0.089869 
0.474193 -0.122393 0.047163 
0.474197 -0.135414 0.069316 
0.474200 -0.127581 0.053788 
0.474212 -0.156659 0.081343 
0.474217 -0.159354 0.041577 
0.474222 -0.159356 0.088221 
0.474231 -0.122403 0.064487 
0.474234 -0.135425 0.075917 
0.474238 -0.104458 0.072582 
0.474241 -0.145981 0.028184 
0.474247 -0.156670 0.039316 
0.474247 -0.135429 0.028014 
0.474248 -0.094334 0.085268 
0.474264 -0.156676 0.050302 
0.474277 -0.148651 0.054441 
0.474281 -0.140700 0.047643 
0.474316 -0.140710 0.085021 
0.474334 -0.148669 0.083191 
0.474347 -0.148673 0.043498 
0.474365 -0.151346 0.090047 
0.474390 -0.140732 0.071754 
0.474396 -0.140734 0.078381 
0.474398 -0.156720 0.019638 
0.474405 -0.156722 0.037136 
0.474422 -0.127641 0.051645 
0.474423 -0.135479 0.087005 
0.474434 -0.138110 0.082696 
0.474435 -0.159428 0.059246 
0.474456 -0.156739 0.085867 
0.474465 -0.094377 0.089667 
0.474475 -0.156745 0.017458 
0.474476 -0.140757 0.045484 
0.474483 -0.135496 0.067163 
0.474487 -0.146056 0.080861 
0.474498 -0.140764 0.032447 
0.474521 -0.132886 0.084682 
0.474542 -0.156767 0.056949 
0.474542 -0.156768 0.015277 
0.474542 -0.104525 0.070462 
0.474543 -0.127674 0.086658 
0.474545 -0.156769 0.079163 
0.474547 -0.117322 0.084004 
0.474548 -0.135514 0.073764 
0.474548 -0.156770 0.072471 
0.474553 -0.146077 0.021687 
0.474554 -0.132896 0.056156 
0.474566 -0.104530 0.076973 
0.474583 -0.159477 0.086037 
0.474587 -0.132905 0.071467 
0.474599 -0.159483 0.065923 
0.474601 -0.156787 0.013096 
0.474644 -0.127701 0.080057 
0.474651 -0.156804 0.010915 
0.474663 -0.156807 0.045941 
0.474668 -0.140814 0.082861 
0.474676 -0.159508 0.057062 
0.474676 -0.148776 0.081022 
0.474679 -0.159509 0.072615 
0.474686 -0.140820 0.069594 
0.474692 -0.156817 0.008734 
0.474695 -0.156818 0.032775 
0.474723 -0.156827 0.006553 
0.474735 -0.104567 0.087911 
0.474746 -0.156835 0.004371 
0.474773 -0.156844 0.054768 
0.474776 -0.138209 0.080539 
0.474783 -0.135581 0.084851 
0.474785 -0.132960 0.054005 
0.474800 -0.146152 0.056609 
0.474807 -0.156855 0.083686 
0.474818 -0.146158 0.072041 
0.474820 -0.146159 0.078694 
0.474823 -0.015544 0.075252 
0.474838 -0.104590 0.068341 
0.474842 -0.146166 0.013018 
0.474847 -0.094453 0.042365 
0.474849 -0.156869 0.043760 
0.474850 -0.148830 0.036988 
0.474853 -0.135602 0.071610 
0.474868 -0.156875 0.076982 
0.474883 -0.132988 0.069316 
0.474892 -0.146181 0.010850 
0.474898 -0.135615 0.010784 
0.474901 -0.140883 0.087352 
0.474903 -0.127771 0.084513 
0.474907 -0.159586 0.054876 
0.474928 -0.127777 0.056043 
0.474934 -0.159595 0.083852 
0.474939 -0.135626 0.008629 
0.474948 -0.156902 0.028411 
0.474960 -0.094475 0.081046 
0.474966 -0.120006 0.077599 
0.474972 -0.140905 0.067433 
0.474995 -0.138273 0.047643 
0.474996 -0.156917 0.052585 
0.474999 -0.146214 0.063233 
0.474999 -0.148877 0.034816 
0.475008 -0.133022 0.051853 
0.475009 -0.148880 0.072184 
0.475009 -0.148880 0.078850 
0.475010 -0.140916 0.080700 
0.475024 -0.094488 0.040252 
0.475024 -0.133027 0.040998 
0.475028 -0.135652 0.062854 
0.475031 -0.146224 0.054441 
0.475043 -0.148891 0.013044 
0.475061 -0.156939 0.026228 
0.475105 -0.104649 0.085789 
0.475109 -0.138306 0.078381 
0.475114 -0.146249 0.069872 
0.475123 -0.127830 0.088979 
0.475130 -0.159661 0.052690 
0.475133 -0.148919 0.008699 
0.475135 -0.135682 0.082696 
0.475140 -0.148921 0.032644 
0.475144 -0.146258 0.076525 
0.475149 -0.135686 0.069455 
0.475150 -0.156968 0.081504 
0.475160 -0.127840 0.053897 
0.475165 -0.140962 0.036839 
0.475165 -0.156973 0.024045 
0.475168 -0.151603 0.015246 
0.475190 -0.138329 0.045484 
0.475192 -0.133074 0.038845 
0.475209 -0.156988 0.050402 
0.475227 -0.151622 0.013070 
0.475235 -0.133086 0.073764 
0.475244 -0.138345 0.089513 
0.475250 -0.140987 0.065270 
0.475254 -0.146292 0.052272 
0.475255 -0.127865 0.082366 
0.475260 -0.157005 0.021861 
0.475261 -0.159705 0.068242 
0.475261 -0.140990 0.085190 
0.475271 -0.148962 0.030471 
0.475276 -0.159710 0.081665 
0.475277 -0.151638 0.010893 
0.475295 -0.141000 0.015155 
0.475302 -0.094544 0.078932 
0.475305 -0.148973 0.070012 
0.475311 -0.159722 0.074947 
0.475314 -0.141006 0.034676 
0.475317 -0.141007 0.056496 
0.475333 -0.148981 0.076678 
0.475343 -0.159733 0.050502 
0.475351 -0.133119 0.036691 
0.475352 -0.157035 0.037210 
0.475394 -0.149001 0.028297 
0.475401 -0.146338 0.067703 
0.475409 -0.157054 0.065923 
0.475413 -0.157055 0.048218 
0.475431 -0.141041 0.045575 
0.475436 -0.135768 0.067298 
0.475454 -0.151694 0.030532 
0.475455 -0.141048 0.032513 
0.475458 -0.146355 0.074356 
0.475466 -0.104728 0.083666 
0.475467 -0.146358 0.050102 
0.475474 -0.141053 0.089691 
0.475477 -0.135780 0.080539 
0.475483 -0.157078 0.079320 
0.475493 -0.162494 0.059481 
0.475494 -0.127930 0.086831 
0.475500 -0.133160 0.034537 
0.475518 -0.141067 0.063107 
0.475549 -0.141076 0.054332 
0.475577 -0.151733 0.028354 
0.475586 -0.122753 0.069037 
0.475586 -0.141087 0.030349 
0.475592 -0.149063 0.067837 
0.475596 -0.127957 0.049600 
0.475605 -0.146400 0.036988 
0.475610 -0.159822 0.079476 
0.475613 -0.141095 0.083026 
0.475616 -0.127962 0.073616 
0.475617 -0.141096 0.043411 
0.475641 -0.133200 0.032382 
0.475643 -0.149079 0.039237 
0.475647 -0.149080 0.074503 
0.475662 -0.149085 0.050202 
0.475672 -0.146421 0.047930 
0.475687 -0.133213 0.089335 
0.475690 -0.151769 0.026176 
0.475695 -0.157149 0.004380 
0.475709 -0.141123 0.028184 
0.475755 -0.146446 0.034816 
0.475772 -0.141142 0.052167 
0.475772 -0.133237 0.030227 
0.475778 -0.141144 0.060942 
0.475780 -0.128007 0.017213 
0.475785 -0.157178 0.070429 
0.475790 -0.151801 0.081343 
0.475794 -0.141148 0.041246 
0.475801 -0.128012 0.047451 
0.475807 -0.157185 0.077134 
0.475808 -0.159889 0.063864 
0.475809 -0.094644 0.087733 
0.475810 -0.135875 0.012965 
0.475810 -0.135875 0.078381 
0.475822 -0.141157 0.026019 
0.475824 -0.122814 0.086658 
0.475848 -0.128025 0.015063 
0.475855 -0.117645 0.068898 
0.475855 -0.128027 0.084682 
0.475860 -0.135889 0.010806 
0.475861 -0.162619 0.046216 
0.475867 -0.149149 0.048026 
0.475867 -0.146481 0.045758 
0.475870 -0.149150 0.065662 
0.475888 -0.146487 0.090047 
0.475890 -0.151833 0.021817 
0.475895 -0.133271 0.028071 
0.475900 -0.099732 0.081376 
0.475900 -0.135901 0.008647 
0.475934 -0.159931 0.077286 
0.475945 -0.135913 0.089513 
0.475948 -0.112516 0.088445 
0.475953 -0.149176 0.072328 
0.475956 -0.162652 0.004397 
0.475962 -0.141198 0.039080 
0.475996 -0.128065 0.045301 
0.476001 -0.094683 0.040335 
0.476008 -0.133303 0.025914 
0.476028 -0.141218 0.058776 
0.476057 -0.133317 0.087179 
0.476060 -0.146540 0.070012 
0.476062 -0.149210 0.045850 
0.476067 -0.159976 0.061673 
0.476072 -0.157273 0.068242 
0.476074 -0.128085 0.089157 
0.476088 -0.146549 0.076678 
0.476093 -0.104866 0.066354 
0.476114 -0.112556 0.075308 
0.476119 -0.149228 0.006540 
0.476122 -0.157289 0.074947 
0.476138 -0.149234 0.063486 
0.476142 -0.117716 0.066758 
0.476146 -0.128105 0.030166 
0.476161 -0.104881 0.079414 
0.476169 -0.094716 0.038217 
0.476175 -0.149246 0.054659 
0.476179 -0.133351 0.049801 
0.476182 -0.128115 0.043150 
0.476187 -0.157311 0.059364 
0.476189 -0.162731 0.052899 
0.476207 -0.146586 0.061186 
0.476207 -0.128122 0.082531 
0.476224 -0.149261 0.030532 
0.476224 -0.122917 0.012887 
0.476240 -0.087158 0.042365 
0.476243 -0.099804 0.079253 
0.476248 -0.149269 0.043673 
0.476259 -0.146602 0.087873 
0.476263 -0.146603 0.026123 
0.476269 -0.128138 0.028014 
0.476270 -0.141289 0.056609 
0.476274 -0.160046 0.039551 
0.476290 -0.141295 0.078694 
0.476314 -0.151968 0.063612 
0.476316 -0.136019 0.087352 
0.476319 -0.112604 0.086310 
0.476346 -0.149299 0.028354 
0.476350 -0.157365 0.066054 
0.476360 -0.128163 0.040998 
0.476367 -0.146635 0.023949 
0.476374 -0.146637 0.081182 
0.476382 -0.128168 0.025861 
0.476384 -0.133408 0.047643 
0.476398 -0.149315 0.061308 
0.476403 -0.162804 0.050703 
0.476403 -0.146646 0.074503 
0.476406 -0.122964 0.088979 
0.476417 -0.087191 0.040252 
0.476420 -0.122968 0.062602 
0.476420 -0.117785 0.064618 
0.476426 -0.149324 0.041494 
0.476430 -0.112630 0.073173 
0.476433 -0.160099 0.037358 
0.476435 -0.141338 0.006513 
0.476457 -0.146663 0.059011 
0.476461 -0.077163 0.035876 
0.476487 -0.128197 0.023709 
0.476502 -0.141358 0.054441 
0.476528 -0.128208 0.038845 
0.476538 -0.122998 0.082366 
0.476551 -0.128214 0.080379 
0.476574 -0.152051 0.061430 
0.476581 -0.136095 0.036839 
0.476583 -0.160149 0.035165 
0.476589 -0.133465 0.008647 
0.476594 -0.149377 0.039316 
0.476611 -0.077187 0.033770 
0.476621 -0.146713 0.085698 
0.476621 -0.133474 0.006487 
0.476626 -0.146715 0.017423 
0.476666 -0.141407 0.028241 
0.476678 -0.136123 0.085190 
0.476687 -0.128251 0.036691 
0.476694 -0.146736 0.015246 
0.476699 -0.146737 0.056835 
0.476708 -0.105002 0.042714 
0.476708 -0.146740 0.079007 
0.476710 -0.146740 0.072328 
0.476721 -0.157488 0.030715 
0.476732 -0.136138 0.034676 
0.476736 -0.112702 0.071036 
0.476743 -0.115281 0.038609 
0.476746 -0.152106 0.024045 
0.476752 -0.077210 0.031663 
0.476753 -0.149427 0.037136 
0.476756 -0.136145 0.071897 
0.476763 -0.152112 0.074799 
0.476766 -0.133515 0.043324 
0.476772 -0.133517 0.082861 
0.476774 -0.094836 0.087911 
0.476777 -0.123060 0.086831 
0.476780 -0.141441 0.026071 
0.476781 -0.160216 0.004397 
0.476792 -0.160219 0.055094 
0.476807 -0.128283 0.084851 
0.476837 -0.128291 0.034537 
0.476841 -0.152137 0.021861 
0.476844 -0.157528 0.028524 
0.476870 -0.120487 0.071323 
0.476872 -0.136178 0.032513 
0.476883 -0.077232 0.029555 
0.476884 -0.141472 0.023901 
0.476885 -0.128304 0.078225 
0.476892 -0.136184 0.089691 
0.476897 -0.149472 0.072471 
0.476899 -0.123092 0.073616 
0.476902 -0.115320 0.036469 
0.476930 -0.141485 0.074356 
0.476932 -0.146809 0.054659 
0.476958 -0.157566 0.026333 
0.476973 -0.146822 0.083521 
0.476980 -0.141500 0.021730 
0.477013 -0.157584 0.068377 
0.477024 -0.128341 0.089335 
0.477028 -0.120527 0.088979 
0.477031 -0.136224 0.083026 
0.477053 -0.136230 0.069733 
0.477061 -0.157600 0.075095 
0.477064 -0.152208 0.079320 
0.477070 -0.152209 0.072615 
0.477080 -0.128356 0.054114 
0.477117 -0.077270 0.040169 
0.477139 -0.123154 0.084682 
0.477143 -0.141549 0.017388 
0.477144 -0.141549 0.047930 
0.477147 -0.094910 0.038295 
0.477155 -0.146877 0.052481 
0.477160 -0.120560 0.082366 
0.477174 -0.128382 0.069455 
0.477190 -0.152248 0.046033 
0.477195 -0.149565 0.070290 
0.477196 -0.136271 0.060942 
0.477206 -0.123171 0.071467 
0.477210 -0.128391 0.076069 
0.477211 -0.141569 0.015216 
0.477216 -0.123173 0.078068 
0.477219 -0.160363 0.039629 
0.477236 -0.141576 0.072184 
0.477251 -0.110251 0.084174 
0.477270 -0.141586 0.013044 
0.477286 -0.077297 0.038060 
0.477291 -0.157676 0.066184 
0.477295 -0.146921 0.067972 
0.477299 -0.149598 0.028411 
0.477303 -0.128416 0.051958 
0.477307 -0.094942 0.036172 
0.477317 -0.146927 0.081343 
0.477321 -0.141601 0.010871 
0.477361 -0.141613 0.090047 
0.477361 -0.141613 0.008699 
0.477363 -0.018071 0.077806 
0.477368 -0.157701 0.072902 
0.477368 -0.141615 0.032644 
0.477375 -0.136322 0.080861 
0.477377 -0.152307 0.043847 
0.477379 -0.160416 0.037433 
0.477389 -0.152311 0.077134 
0.477393 -0.082333 0.023277 
0.477400 -0.120621 0.086831 
0.477401 -0.136329 0.074208 
0.477442 -0.138985 0.052272 
0.477448 -0.136342 0.058776 
0.477449 -0.157728 0.013175 
0.477450 -0.133707 0.078537 
0.477462 -0.128459 0.067298 
0.477483 -0.149656 0.068107 
0.477489 -0.082349 0.021163 
0.477493 -0.123245 0.082531 
0.477500 -0.157745 0.046216 
0.477504 -0.141656 0.083356 
0.477504 -0.120647 0.080218 
0.477524 -0.120652 0.021512 
0.477529 -0.160467 0.035235 
0.477534 -0.141665 0.070012 
0.477537 -0.157757 0.032971 
0.477538 -0.133731 0.045575 
0.477540 -0.136369 0.036914 
0.477541 -0.123257 0.075917 
0.477545 -0.149675 0.039394 
0.477555 -0.152364 0.041660 
0.477563 -0.133738 0.032513 
0.477565 -0.128487 0.058541 
0.477573 -0.147006 0.065793 
0.477593 -0.152376 0.026280 
0.477604 -0.110332 0.082036 
0.477611 -0.120674 0.019363 
0.477638 -0.118086 0.088979 
0.477652 -0.147030 0.079163 
0.477655 -0.152396 0.068242 
0.477656 -0.139047 0.050102 
0.477661 -0.147033 0.034956 
0.477665 -0.157799 0.070707 
0.477666 -0.115505 0.023613 
0.477669 -0.157801 0.030776 
0.477673 -0.136407 0.015185 
0.477682 -0.102658 0.057836 
0.477686 -0.157806 0.044021 
0.477688 -0.120694 0.017213 
0.477690 -0.136411 0.056609 
0.477695 -0.133775 0.030349 
0.477695 -0.069861 0.089485 
0.477698 -0.152410 0.024093 
0.477708 -0.147048 0.013096 
0.477710 -0.136417 0.078694 
0.477712 -0.112933 0.077755 
0.477725 -0.107790 0.047163 
0.477725 -0.133784 0.043411 
0.477736 -0.062398 0.089302 
0.477739 -0.095028 0.088089 
0.477758 -0.147063 0.010915 
0.477762 -0.149743 0.065923 
0.477762 -0.115528 0.021468 
0.477763 -0.120712 0.084682 
0.477770 -0.147067 0.045941 
0.477771 -0.064889 0.042191 
0.477773 -0.123317 0.023709 
0.477775 -0.133798 0.076373 
0.477778 -0.095036 0.042626 
0.477792 -0.123322 0.067163 
0.477803 -0.147077 0.032775 
0.477807 -0.128552 0.056383 
0.477818 -0.133810 0.028184 
0.477822 -0.157851 0.061795 
0.477837 -0.123334 0.080379 
0.477838 -0.136454 0.089869 
0.477842 -0.141756 0.023949 
0.477848 -0.141758 0.081182 
0.477849 -0.115549 0.019323 
0.477864 -0.157865 0.041826 
0.477868 -0.123342 0.021556 
0.477878 -0.141767 0.074503 
0.477903 -0.133833 0.041246 
0.477919 -0.128582 0.045484 
0.477922 -0.136478 0.054441 
0.477924 -0.102710 0.055703 
0.477926 -0.115567 0.017178 
0.477932 -0.133841 0.026019 
0.477949 -0.110412 0.079896 
0.477949 -0.160608 0.061917 
0.477949 -0.064913 0.040086 
0.477953 -0.157894 0.068512 
0.477954 -0.149803 0.010937 
0.477958 -0.147125 0.043760 
0.477977 -0.147131 0.076982 
0.477980 -0.136494 0.083191 
0.477988 -0.139144 0.013044 
0.477993 -0.136498 0.043498 
0.477994 -0.115584 0.015033 
0.477996 -0.160624 0.041909 
0.478011 -0.118178 0.086831 
0.478027 -0.105292 0.038531 
0.478027 -0.149826 0.006566 
0.478033 -0.157921 0.039629 
0.478035 -0.136510 0.076525 
0.478036 -0.133871 0.023853 
0.478071 -0.123394 0.065009 
0.478077 -0.115604 0.071323 
0.478077 -0.069917 0.087377 
0.478089 -0.105306 0.079736 
0.478100 -0.072419 0.048699 
0.478101 -0.123402 0.015094 
0.478104 -0.147170 0.061430 
0.478118 -0.062448 0.087199 
0.478135 -0.147179 0.041577 
0.478146 -0.136542 0.052272 
0.478164 -0.128648 0.076221 
0.478165 -0.120814 0.075917 
0.478172 -0.147190 0.026228 
0.478172 -0.123420 0.078225 
0.478183 -0.141857 0.079007 
0.478185 -0.141858 0.072328 
0.478200 -0.160693 0.059717 
0.478201 -0.136558 0.026071 
0.478229 -0.141871 0.013070 
0.478236 -0.115642 0.088979 
0.478279 -0.141886 0.010893 
0.478284 -0.110489 0.077755 
0.478285 -0.095137 0.036247 
0.478304 -0.147231 0.039394 
0.478307 -0.152604 0.030715 
0.478307 -0.105354 0.064487 
0.478310 -0.152605 0.070568 
0.478311 -0.123456 0.089335 
0.478320 -0.141898 0.008717 
0.478340 -0.136597 0.039159 
0.478341 -0.123464 0.062854 
0.478341 -0.139247 0.028297 
0.478343 -0.158023 0.035235 
0.478347 -0.128697 0.087352 
0.478352 -0.141907 0.006540 
0.478372 -0.141913 0.063486 
0.478372 -0.147252 0.021861 
0.478375 -0.115676 0.069176 
0.478382 -0.133967 0.034746 
0.478382 -0.113092 0.058188 
0.478399 -0.133972 0.072041 
0.478406 -0.107944 0.086484 
0.478420 -0.067470 0.042278 
0.478424 -0.133979 0.013018 
0.478424 -0.105380 0.077599 
0.478430 -0.152643 0.028524 
0.478435 -0.110524 0.088801 
0.478435 -0.095167 0.034118 
0.478438 -0.120883 0.038845 
0.478441 -0.100265 0.084004 
0.478443 -0.160774 0.057515 
0.478450 -0.069972 0.085268 
0.478455 -0.107955 0.038609 
0.478457 -0.128727 0.080700 
0.478459 -0.147279 0.019677 
0.478464 -0.147281 0.037210 
0.478474 -0.133993 0.010850 
0.478475 -0.095175 0.083835 
0.478481 -0.128733 0.074060 
0.478482 -0.120894 0.073764 
0.478490 -0.107963 0.049400 
0.478490 -0.062497 0.085095 
0.478498 -0.123504 0.076069 
0.478499 -0.136643 0.036988 
0.478501 -0.018114 0.088756 
0.478503 -0.158076 0.064117 
0.478509 -0.141954 0.076830 
0.478521 -0.123510 0.028071 
0.478524 -0.128745 0.058659 
0.478541 -0.139305 0.067837 
0.478544 -0.158090 0.004406 
0.478544 -0.149988 0.059364 
0.478568 -0.095193 0.044843 
0.478573 -0.136664 0.065532 
0.478574 -0.136664 0.085529 
0.478578 -0.105414 0.062350 
0.478598 -0.067496 0.040169 
0.478598 -0.120924 0.036691 
0.478599 -0.113143 0.084513 
0.478602 -0.123531 0.060698 
0.478625 -0.113149 0.056043 
0.478635 -0.123540 0.025914 
0.478645 -0.136684 0.056722 
0.478650 -0.136686 0.034816 
0.478676 -0.160853 0.055312 
0.478684 -0.123553 0.087179 
0.478685 -0.018121 0.075878 
0.478687 -0.092675 0.079414 
0.478693 -0.136698 0.013044 
0.478696 -0.120948 0.065009 
0.478697 -0.134056 0.069872 
0.478707 -0.105442 0.068898 
0.478717 -0.152735 0.059481 
0.478728 -0.118356 0.082531 
0.478731 -0.150047 0.017527 
0.478749 -0.120962 0.034537 
0.478750 -0.105452 0.075460 
0.478756 -0.147370 0.032840 
0.478763 -0.136718 0.045758 
0.478772 -0.142032 0.067972 
0.478786 -0.027941 0.084574 
0.478788 -0.128816 0.071897 
0.478799 -0.150068 0.015338 
0.478803 -0.092697 0.090396 
0.478808 -0.110610 0.086658 
0.478813 -0.070025 0.083158 
0.478820 -0.087630 0.014880 
0.478820 -0.139386 0.065662 
0.478839 -0.105471 0.060211 
0.478857 -0.087637 0.034049 
0.478878 -0.136751 0.054550 
0.478879 -0.152786 0.066184 
0.478890 -0.120997 0.032382 
0.478892 -0.108053 0.045118 
0.478897 -0.062550 0.044386 
0.478901 -0.160928 0.053108 
0.478910 -0.100363 0.040666 
0.478922 -0.123614 0.019441 
0.478927 -0.110638 0.073469 
0.478954 -0.113227 0.082366 
0.478960 -0.152812 0.057288 
0.478966 -0.121016 0.062854 
0.478986 -0.134137 0.067703 
0.478992 -0.087662 0.044752 
0.478996 -0.105506 0.066758 
0.478999 -0.087663 0.031924 
0.479000 -0.113238 0.075765 
0.479011 -0.018134 0.073787 
0.479012 -0.027954 0.088938 
0.479016 -0.134145 0.081022 
0.479020 -0.150137 0.054985 
0.479022 -0.092740 0.077286 
0.479048 -0.123646 0.085021 
0.479049 -0.115839 0.078068 
0.479052 -0.142115 0.065793 
0.479073 -0.118441 0.080379 
0.479078 -0.095295 0.086137 
0.479079 -0.100398 0.038531 
0.479080 -0.108096 0.042975 
0.479085 -0.062574 0.042278 
0.479087 -0.128896 0.069733 
0.479091 -0.105527 0.058071 
0.479103 -0.136815 0.052376 
0.479116 -0.161000 0.050903 
0.479129 -0.136823 0.041412 
0.479136 -0.105537 0.019284 
0.479140 -0.142141 0.034956 
0.479149 -0.152873 0.063990 
0.479149 -0.027962 0.082480 
0.479187 -0.142155 0.013096 
0.479193 -0.152887 0.055094 
0.479200 -0.027965 0.076034 
0.479209 -0.123688 0.045484 
0.479213 -0.105554 0.017143 
0.479218 -0.067583 0.044477 
0.479227 -0.121082 0.060698 
0.479229 -0.139505 0.076830 
0.479234 -0.110709 0.071323 
0.479237 -0.142170 0.010915 
0.479239 -0.100432 0.036395 
0.479245 -0.150208 0.052794 
0.479245 -0.108133 0.051645 
0.479246 -0.110712 0.077912 
0.479257 -0.018143 0.084574 
0.479258 -0.108136 0.040832 
0.479263 -0.062598 0.040169 
0.479276 -0.105567 0.064618 
0.479279 -0.142182 0.008734 
0.479282 -0.075107 0.087733 
0.479298 -0.128953 0.087526 
0.479298 -0.136871 0.039237 
0.479299 -0.113308 0.080218 
0.479310 -0.121103 0.087179 
0.479310 -0.092796 0.081706 
0.479311 -0.142192 0.006553 
0.479318 -0.136877 0.050202 
0.479319 -0.150231 0.026333 
0.479322 -0.161070 0.048697 
0.479328 -0.018146 0.071695 
0.479330 -0.123719 0.054223 
0.479334 -0.105580 0.055930 
0.479338 -0.134235 0.056722 
0.479358 -0.087729 0.040501 
0.479361 -0.118512 0.034537 
0.479375 -0.115918 0.075917 
0.479376 -0.128974 0.067568 
0.479393 -0.110746 0.088979 
0.479395 -0.027976 0.086844 
0.479397 -0.123736 0.043324 
0.479403 -0.123738 0.082861 
0.479408 -0.097911 0.051435 
0.479411 -0.152956 0.061795 
0.479414 -0.077641 0.036098 
0.479414 -0.142222 0.030593 
0.479414 -0.139559 0.026176 
0.479416 -0.082682 0.085789 
0.479417 -0.108172 0.066893 
0.479417 -0.097913 0.040666 
0.479418 -0.082682 0.038295 
0.479421 -0.123743 0.069594 
0.479424 -0.150264 0.024141 
0.479433 -0.142228 0.070290 
0.479437 -0.142229 0.043760 
0.479439 -0.128991 0.050001 
0.479442 -0.095367 0.084004 
0.479476 -0.129001 0.021687 
0.479477 -0.100482 0.077599 
0.479486 -0.080171 0.042539 
0.479493 -0.158403 0.004415 
0.479503 -0.118547 0.032382 
0.479504 -0.027983 0.080385 
0.479519 -0.161136 0.046490 
0.479519 -0.139590 0.023997 
0.479520 -0.150294 0.021948 
0.479524 -0.136935 0.048026 
0.479526 -0.110776 0.082366 
0.479527 -0.027984 0.073939 
0.479528 -0.087760 0.038374 
0.479533 -0.110778 0.069176 
0.479538 -0.142259 0.028411 
0.479540 -0.105626 0.088801 
0.479546 -0.139598 0.074651 
0.479549 -0.118558 0.089335 
0.479549 -0.097940 0.086310 
0.479563 -0.129024 0.019520 
0.479565 -0.077666 0.033979 
0.479567 -0.105632 0.053788 
0.479571 -0.134301 0.054550 
0.479573 -0.110787 0.075765 
0.479575 -0.123783 0.041163 
0.479586 -0.097948 0.038531 
0.479600 -0.136957 0.056835 
0.479606 -0.150321 0.019755 
0.479615 -0.139618 0.021817 
0.479621 -0.018157 0.082480 
0.479623 -0.153024 0.039629 
0.479623 -0.097955 0.049300 
0.479625 -0.161171 0.004424 
0.479629 -0.082718 0.090214 
0.479635 -0.118580 0.030227 
0.479639 -0.121186 0.047643 
0.479641 -0.070146 0.089849 
0.479646 -0.129047 0.047835 
0.479656 -0.129049 0.065401 
0.479662 -0.129051 0.085359 
0.479665 -0.080201 0.040418 
0.479671 -0.105655 0.082201 
0.479688 -0.087789 0.036247 
0.479693 -0.115995 0.073764 
0.479697 -0.108235 0.064748 
0.479702 -0.139643 0.019638 
0.479705 -0.136987 0.010893 
0.479706 -0.161199 0.044283 
0.479706 -0.100530 0.042888 
0.479707 -0.077689 0.031859 
0.479721 -0.136992 0.045850 
0.479726 -0.129068 0.056609 
0.479727 -0.129068 0.034746 
0.479735 -0.087798 0.017039 
0.479735 -0.150361 0.057288 
0.479741 -0.142319 0.081504 
0.479744 -0.129073 0.072041 
0.479746 -0.129074 0.078694 
0.479746 -0.097980 0.036395 
0.479746 -0.136999 0.008717 
0.479748 -0.123827 0.080700 
0.479748 -0.121214 0.071754 
0.479751 -0.137000 0.032709 
0.479754 -0.067658 0.038138 
0.479759 -0.118610 0.028071 
0.479769 -0.129080 0.013018 
0.479769 -0.027998 0.084747 
0.479779 -0.113422 0.089157 
0.479780 -0.139666 0.017458 
0.479781 -0.082744 0.083666 
0.479783 -0.153075 0.037433 
0.479796 -0.134364 0.052376 
0.479797 -0.095437 0.081871 
0.479798 -0.137014 0.063486 
0.479803 -0.100550 0.075460 
0.479819 -0.129093 0.010850 
0.479825 -0.113433 0.054005 
0.479829 -0.092896 0.047068 
0.479834 -0.137024 0.054659 
0.479839 -0.087817 0.034118 
0.479844 -0.028003 0.071843 
0.479849 -0.139686 0.015277 
0.479850 -0.028003 0.078289 
0.479855 -0.139687 0.072471 
0.479860 -0.129104 0.008682 
0.479863 -0.077714 0.087911 
0.479869 -0.116037 0.017248 
0.479869 -0.129107 0.032578 
0.479870 -0.075199 0.090031 
0.479872 -0.110856 0.080218 
0.479874 -0.080236 0.021250 
0.479875 -0.129108 0.089869 
0.479890 -0.077718 0.042539 
0.479891 -0.121250 0.089513 
0.479892 -0.129113 0.006513 
0.479903 -0.150414 0.008786 
0.479906 -0.153114 0.057402 
0.479909 -0.137045 0.043673 
0.479914 -0.105708 0.086658 
0.479923 -0.118651 0.087179 
0.479923 -0.092914 0.084004 
0.479925 -0.150421 0.063990 
0.479926 -0.158546 0.039786 
0.479927 -0.129122 0.063233 
0.479928 -0.121259 0.062981 
0.479929 -0.105711 0.023613 
0.479934 -0.153123 0.035235 
0.479936 -0.150424 0.006592 
0.479940 -0.142378 0.019677 
0.479945 -0.142380 0.037210 
0.479954 -0.108293 0.088979 
0.479958 -0.139718 0.010915 
0.479958 -0.150431 0.004397 
0.479960 -0.129131 0.054441 
0.479968 -0.108296 0.062602 
0.479974 -0.105721 0.038688 
0.479976 -0.018170 0.080385 
0.479981 -0.087843 0.031990 
0.479994 -0.028011 0.089120 
0.479996 -0.134420 0.074503 
0.479999 -0.161297 0.075686 
0.480001 -0.116069 0.071610 
0.480002 -0.129142 0.030410 
0.480011 -0.134424 0.050202 
0.480017 -0.105731 0.080057 
0.480025 -0.070202 0.087733 
0.480025 -0.105732 0.021468 
0.480026 -0.092934 0.044935 
0.480029 -0.121285 0.082861 
0.480030 -0.129150 0.043498 
0.480033 -0.105734 0.073469 
0.480043 -0.129153 0.069872 
0.480044 -0.095487 0.086310 
0.480047 -0.121290 0.069594 
0.480059 -0.137088 0.052481 
0.480059 -0.137088 0.061308 
0.480073 -0.129162 0.076525 
0.480081 -0.153170 0.008804 
0.480081 -0.121298 0.076221 
0.480086 -0.158599 0.037581 
0.480087 -0.137096 0.041494 
0.480093 -0.118693 0.058541 
0.480101 -0.103178 0.053788 
0.480109 -0.087866 0.088267 
0.480113 -0.153180 0.006605 
0.480113 -0.087867 0.029860 
0.480121 -0.100617 0.073321 
0.480122 -0.137106 0.026176 
0.480125 -0.129176 0.028241 
0.480127 -0.082804 0.027674 
0.480135 -0.139769 0.030593 
0.480146 -0.123930 0.010828 
0.480149 -0.153192 0.002207 
0.480153 -0.113510 0.087005 
0.480178 -0.118714 0.036765 
0.480187 -0.150503 0.061795 
0.480187 -0.123940 0.008664 
0.480189 -0.129193 0.061064 
0.480209 -0.129198 0.041329 
0.480215 -0.134481 0.085698 
0.480218 -0.134482 0.048026 
0.480219 -0.123949 0.006500 
0.480221 -0.134483 0.065662 
0.480224 -0.153216 0.044108 
0.480226 -0.082821 0.051226 
0.480227 -0.137136 0.023997 
0.480230 -0.075256 0.029738 
0.480234 -0.087889 0.081706 
0.480237 -0.077775 0.085789 
0.480238 -0.158649 0.035374 
0.480241 -0.082824 0.025547 
0.480249 -0.129209 0.087700 
0.480252 -0.062727 0.050913 
0.480258 -0.105784 0.015033 
0.480259 -0.113535 0.080379 
0.480272 -0.150530 0.026385 
0.480274 -0.142477 0.063738 
0.480279 -0.105788 0.084513 
0.480281 -0.077782 0.048999 
0.480287 -0.118741 0.085021 
0.480300 -0.116141 0.069455 
0.480307 -0.161401 0.073476 
0.480312 -0.137160 0.059129 
0.480317 -0.018183 0.071843 
0.480319 -0.092991 0.075308 
0.480323 -0.137163 0.021817 
0.480330 -0.118751 0.034607 
0.480333 -0.129231 0.067703 
0.480334 -0.121362 0.023805 
0.480337 -0.121363 0.067433 
0.480341 -0.105802 0.071323 
0.480345 -0.129235 0.023901 
0.480352 -0.110967 0.089157 
0.480353 -0.105805 0.077912 
0.480366 -0.100668 0.034328 
0.480368 -0.118761 0.078381 
0.480372 -0.121371 0.039002 
0.480375 -0.121372 0.080700 
0.480377 -0.150562 0.024189 
0.480379 -0.129244 0.039159 
0.480380 -0.123990 0.069733 
0.480391 -0.129247 0.074356 
0.480397 -0.121378 0.049901 
0.480399 -0.070257 0.085616 
0.480399 -0.110978 0.054005 
0.480399 -0.121379 0.074060 
0.480403 -0.153273 0.041909 
0.480408 -0.095559 0.084174 
0.480410 -0.137188 0.019638 
0.480412 -0.123998 0.076373 
0.480415 -0.134537 0.045850 
0.480421 -0.062749 0.038138 
0.480439 -0.150582 0.059599 
0.480441 -0.129261 0.021730 
0.480441 -0.082858 0.049099 
0.480442 -0.129261 0.058894 
0.480449 -0.116177 0.041080 
0.480468 -0.062755 0.048799 
0.480469 -0.075293 0.025495 
0.480483 -0.087935 0.086137 
0.480488 -0.077815 0.046876 
0.480488 -0.137211 0.017458 
0.480501 -0.105837 0.088979 
0.480507 -0.139877 0.039394 
0.480508 -0.087939 0.038452 
0.480519 -0.100700 0.006435 
0.480524 -0.124027 0.060942 
0.480528 -0.129284 0.019559 
0.480532 -0.121412 0.036839 
0.480536 -0.142555 0.061552 
0.480538 -0.077823 0.064096 
0.480539 -0.129287 0.036988 
0.480553 -0.015732 0.089120 
0.480560 -0.150620 0.019795 
0.480560 -0.082879 0.036247 
0.480566 -0.150622 0.086545 
0.480573 -0.153327 0.039708 
0.480574 -0.075310 0.023373 
0.480590 -0.116212 0.067298 
0.480596 -0.113615 0.078225 
0.480598 -0.067778 0.059601 
0.480607 -0.161501 0.071264 
0.480614 -0.129307 0.065532 
0.480624 -0.111030 0.051853 
0.480625 -0.018195 0.069745 
0.480628 -0.075318 0.085789 
0.480630 -0.121437 0.085190 
0.480634 -0.105867 0.082366 
0.480641 -0.105868 0.069176 
0.480642 -0.158782 0.089263 
0.480643 -0.118829 0.082861 
0.480654 -0.055295 0.063704 
0.480666 -0.147958 0.008786 
0.480667 -0.139924 0.037210 
0.480669 -0.087969 0.036321 
0.480670 -0.124065 0.067568 
0.480681 -0.105877 0.075765 
0.480683 -0.150659 0.057402 
0.480683 -0.121450 0.034676 
0.480685 -0.077847 0.044752 
0.480690 -0.129328 0.034816 
0.480693 -0.087973 0.090578 
0.480693 -0.108460 0.084682 
0.480695 -0.118842 0.076221 
0.480698 -0.147968 0.006592 
0.480712 -0.108464 0.034467 
0.480712 -0.121458 0.078537 
0.480721 -0.147975 0.004397 
0.480727 -0.111054 0.087005 
0.480729 -0.100744 0.069037 
0.480730 -0.124081 0.074208 
0.480741 -0.142616 0.039473 
0.480764 -0.095630 0.082036 
0.480777 -0.105898 0.060455 
0.480789 -0.142630 0.059364 
0.480790 -0.075343 0.036172 
0.480801 -0.121480 0.045575 
0.480809 -0.077867 0.061971 
0.480811 -0.111073 0.038845 
0.480816 -0.150700 0.011003 
0.480818 -0.139968 0.035025 
0.480819 -0.082923 0.077286 
0.480833 -0.129366 0.032644 
0.480840 -0.111080 0.049701 
0.480845 -0.082928 0.044843 
0.480847 -0.121492 0.006500 
0.480847 -0.067813 0.072582 
0.480851 -0.067813 0.057483 
0.480871 -0.116279 0.065140 
0.480876 -0.105920 0.086831 
0.480879 -0.098212 0.084343 
0.480885 -0.129380 0.063359 
0.480898 -0.142662 0.019716 
0.480901 -0.142664 0.037284 
0.480920 -0.121510 0.054332 
0.480925 -0.018206 0.067645 
0.480930 -0.116294 0.034607 
0.480935 -0.124133 0.017353 
0.480948 -0.105936 0.038766 
0.480958 -0.121520 0.030349 
0.480961 -0.142681 0.048314 
0.480969 -0.129403 0.083356 
0.480971 -0.111110 0.036691 
0.480976 -0.142685 0.017527 
0.480982 -0.082952 0.088267 
0.480985 -0.100798 0.023613 
0.480986 -0.118914 0.039002 
0.480989 -0.121528 0.043411 
0.480999 -0.105947 0.073616 
0.481007 -0.134703 0.059129 
0.481007 -0.121532 0.069733 
0.481009 -0.095679 0.086484 
0.481019 -0.100805 0.066893 
0.481024 -0.142700 0.079476 
0.481030 -0.111124 0.017248 
0.481030 -0.105954 0.058306 
0.481033 -0.082961 0.042714 
0.481036 -0.103379 0.088979 
0.481039 -0.124160 0.072041 
0.481044 -0.142706 0.015338 
0.481045 -0.062830 0.087733 
0.481047 -0.111128 0.047547 
0.481047 -0.060331 0.033909 
0.481049 -0.108540 0.082531 
0.481051 -0.137372 0.088221 
0.481053 -0.142708 0.035095 
0.481064 -0.124167 0.013018 
0.481065 -0.153484 0.006618 
0.481071 -0.077910 0.059845 
0.481077 -0.088043 0.088445 
0.481081 -0.100818 0.021468 
0.481082 -0.121551 0.028184 
0.481084 -0.075389 0.031924 
0.481087 -0.153491 0.055312 
0.481088 -0.153492 0.004415 
0.481092 -0.111138 0.084851 
0.481095 -0.067848 0.055364 
0.481099 -0.070359 0.027617 
0.481099 -0.111140 0.015094 
0.481104 -0.140051 0.070429 
0.481108 -0.105971 0.036617 
0.481111 -0.095699 0.079896 
0.481115 -0.116338 0.004327 
0.481123 -0.111145 0.034537 
0.481140 -0.088055 0.042801 
0.481140 -0.148104 0.024189 
0.481143 -0.116345 0.062981 
0.481147 -0.129451 0.061186 
0.481156 -0.067856 0.070462 
0.481159 -0.142740 0.046124 
0.481161 -0.085518 0.017073 
0.481168 -0.100836 0.019323 
0.481168 -0.121573 0.041246 
0.481171 -0.111156 0.078225 
0.481171 -0.137406 0.081504 
0.481171 -0.129457 0.041412 
0.481195 -0.142751 0.032905 
0.481197 -0.121580 0.026019 
0.481198 -0.108574 0.060576 
0.481212 -0.082991 0.040583 
0.481214 -0.075410 0.053352 
0.481224 -0.150828 0.026437 
0.481235 -0.098284 0.082201 
0.481237 -0.148134 0.021992 
0.481241 -0.106000 0.084682 
0.481242 -0.113768 0.073912 
0.481242 -0.065361 0.036098 
0.481244 -0.111173 0.045392 
0.481245 -0.088074 0.075308 
0.481265 -0.111178 0.032382 
0.481284 -0.137438 0.021861 
0.481290 -0.129489 0.067837 
0.481298 -0.121606 0.067568 
0.481302 -0.121607 0.023853 
0.481308 -0.106015 0.071467 
0.481316 -0.129496 0.081182 
0.481319 -0.067879 0.061845 
0.481319 -0.088088 0.040666 
0.481328 -0.142790 0.030715 
0.481330 -0.067881 0.053243 
0.481340 -0.075430 0.027674 
0.481347 -0.142796 0.043934 
0.481352 -0.142797 0.077286 
0.481371 -0.137463 0.019677 
0.481382 -0.083021 0.038452 
0.481395 -0.108618 0.080379 
0.481399 -0.121631 0.021687 
0.481400 -0.052888 0.074548 
0.481401 -0.129519 0.059011 
0.481405 -0.116409 0.060820 
0.481418 -0.106039 0.006461 
0.481434 -0.137481 0.065923 
0.481435 -0.052892 0.050913 
0.481439 -0.075445 0.051226 
0.481440 -0.119026 0.032513 
0.481441 -0.106044 0.004310 
0.481448 -0.095766 0.077755 
0.481449 -0.137485 0.017492 
0.481455 -0.062884 0.048899 
0.481456 -0.067899 0.068341 
0.481465 -0.083035 0.073025 
0.481477 -0.113823 0.085021 
0.481480 -0.116427 0.087352 
0.481481 -0.124274 0.052272 
0.481484 -0.106054 0.062728 
0.481489 -0.088119 0.038531 
0.481492 -0.142839 0.052794 
0.481499 -0.111232 0.076069 
0.481502 -0.129546 0.037062 
0.481505 -0.119042 0.063107 
0.481509 -0.106059 0.054005 
0.481513 -0.095779 0.032186 
0.481518 -0.137505 0.015308 
0.481519 -0.113833 0.034607 
0.481526 -0.088125 0.049300 
0.481527 -0.142849 0.041743 
0.481529 -0.153632 0.050903 
0.481536 -0.124289 0.026071 
0.481543 -0.083048 0.036321 
0.481551 -0.113841 0.071754 
0.481563 -0.088132 0.073173 
0.481567 -0.142861 0.026333 
0.481569 -0.121674 0.047835 
0.481579 -0.121677 0.065401 
0.481582 -0.098355 0.080057 
0.481600 -0.095796 0.088801 
0.481608 -0.093240 0.073321 
0.481612 -0.111258 0.041080 
0.481622 -0.148253 0.008804 
0.481639 -0.113862 0.045484 
0.481641 -0.124316 0.023901 
0.481651 -0.052915 0.048799 
0.481654 -0.129587 0.079007 
0.481654 -0.148262 0.006605 
0.481655 -0.129587 0.072328 
0.481656 -0.075479 0.049099 
0.481658 -0.116470 0.058659 
0.481661 -0.113867 0.032447 
0.481662 -0.062911 0.046780 
0.481662 -0.057908 0.087733 
0.481671 -0.142892 0.075095 
0.481672 -0.142892 0.024141 
0.481675 -0.124325 0.039159 
0.481681 -0.113871 0.006487 
0.481697 -0.124330 0.050102 
0.481699 -0.129599 0.013070 
0.481701 -0.137557 0.006566 
0.481704 -0.113877 0.004327 
0.481706 -0.137558 0.063738 
0.481708 -0.142903 0.050603 
0.481715 -0.055417 0.083327 
0.481718 -0.052923 0.072434 
0.481724 -0.137564 0.004380 
0.481725 -0.108693 0.071610 
0.481731 -0.095822 0.082201 
0.481733 -0.108694 0.078225 
0.481733 -0.088163 0.047163 
0.481734 -0.106109 0.051853 
0.481735 -0.060417 0.085616 
0.481736 -0.153698 0.048697 
0.481738 -0.124341 0.058894 
0.481739 -0.070453 0.083666 
0.481750 -0.129613 0.010893 
0.481751 -0.148292 0.030837 
0.481753 -0.111291 0.067298 
0.481763 -0.150997 0.046399 
0.481766 -0.121724 0.045667 
0.481769 -0.142921 0.021948 
0.481770 -0.095830 0.027900 
0.481774 -0.083088 0.070893 
0.481780 -0.098395 0.047355 
0.481788 -0.078026 0.062097 
0.481791 -0.129624 0.008717 
0.481793 -0.121731 0.032578 
0.481794 -0.113898 0.030288 
0.481801 -0.080558 0.038452 
0.481810 -0.078029 0.029860 
0.481818 -0.111306 0.073912 
0.481819 -0.072983 0.051226 
0.481823 -0.129632 0.006540 
0.481824 -0.137592 0.043847 
0.481825 -0.124363 0.019559 
0.481833 -0.113907 0.082861 
0.481836 -0.124366 0.036988 
0.481837 -0.083099 0.032055 
0.481846 -0.116515 0.085190 
0.481849 -0.134938 0.068107 
0.481851 -0.113912 0.069594 
0.481856 -0.142947 0.019755 
0.481858 -0.052938 0.046684 
0.481863 -0.075511 0.046972 
0.481869 -0.095850 0.060333 
0.481899 -0.106145 0.067163 
0.481903 -0.124383 0.017388 
0.481904 -0.124383 0.047930 
0.481911 -0.124385 0.065532 
0.481918 -0.093300 0.071180 
0.481920 -0.098424 0.077912 
0.481929 -0.129661 0.030532 
0.481931 -0.088200 0.045026 
0.481934 -0.142970 0.017562 
0.481951 -0.106157 0.049701 
0.481952 -0.151056 0.044196 
0.481970 -0.083122 0.029921 
0.481974 -0.119158 0.074208 
0.481977 -0.119159 0.050001 
0.481983 -0.124404 0.056722 
0.481988 -0.124405 0.034816 
0.481991 -0.140309 0.054985 
0.481994 -0.098439 0.032251 
0.482003 -0.142990 0.015369 
0.482018 -0.116557 0.045575 
0.482025 -0.108760 0.069455 
0.482029 -0.067979 0.064096 
0.482034 -0.015780 0.080715 
0.482042 -0.137655 0.026280 
0.482051 -0.078068 0.059967 
0.482053 -0.129694 0.028354 
0.482061 -0.108768 0.076069 
0.482062 -0.143008 0.013175 
0.482068 -0.098454 0.088979 
0.482069 -0.075544 0.031990 
0.482072 -0.055458 0.081211 
0.482089 -0.101029 0.058306 
0.482094 -0.083143 0.027787 
0.482095 -0.095895 0.073469 
0.482101 -0.060463 0.083496 
0.482102 -0.124435 0.045758 
0.482113 -0.143023 0.010981 
0.482120 -0.088234 0.042888 
0.482123 -0.095900 0.058188 
0.482123 -0.124440 0.008699 
0.482128 -0.098467 0.030104 
0.482130 -0.124442 0.032644 
0.482131 -0.151113 0.041991 
0.482134 -0.121817 0.041329 
0.482142 -0.113981 0.067433 
0.482142 -0.062974 0.081376 
0.482147 -0.055467 0.040335 
0.482154 -0.143035 0.008786 
0.482154 -0.078085 0.023469 
0.482156 -0.124449 0.006526 
0.482158 -0.106202 0.047547 
0.482168 -0.129725 0.026176 
0.482170 -0.093349 0.042975 
0.482179 -0.124454 0.004354 
0.482180 -0.106207 0.065009 
0.482185 -0.119210 0.047835 
0.482186 -0.143045 0.006592 
0.482197 -0.052976 0.053134 
0.482201 -0.088249 0.027844 
0.482203 -0.075565 0.029860 
0.482203 -0.116602 0.083026 
0.482207 -0.116602 0.043411 
0.482213 -0.078095 0.066489 
0.482217 -0.088252 0.075460 
0.482218 -0.124465 0.054550 
0.482234 -0.106219 0.034537 
0.482245 -0.106221 0.056269 
0.482245 -0.080632 0.044935 
0.482247 -0.129746 0.067972 
0.482251 -0.078101 0.021337 
0.482257 -0.116615 0.076373 
0.482260 -0.153865 0.053213 
0.482269 -0.129752 0.081343 
0.482274 -0.129754 0.023997 
0.482274 -0.106228 0.071610 
0.482279 -0.148455 0.019834 
0.482283 -0.151160 0.024285 
0.482283 -0.119234 0.072041 
0.482291 -0.124483 0.043585 
0.482299 -0.088267 0.040749 
0.482304 -0.129762 0.039316 
0.482305 -0.078110 0.057836 
0.482316 -0.088270 0.025705 
0.482327 -0.075584 0.027730 
0.482333 -0.101080 0.056156 
0.482350 -0.093384 0.040832 
0.482356 -0.106246 0.045392 
0.482364 -0.116640 0.052167 
0.482377 -0.106251 0.032382 
0.482380 -0.108840 0.073912 
0.482382 -0.015792 0.078610 
0.482382 -0.119259 0.045667 
0.482391 -0.078124 0.090578 
0.482403 -0.111441 0.043324 
0.482405 -0.095956 0.071323 
0.482417 -0.095959 0.077912 
0.482420 -0.088289 0.086484 
0.482424 -0.114047 0.065270 
0.482431 -0.018263 0.089485 
0.482455 -0.121898 0.019559 
0.482458 -0.060508 0.081376 
0.482470 -0.124530 0.041412 
0.482473 -0.095970 0.008594 
0.482478 -0.055505 0.036098 
0.482481 -0.103690 0.080379 
0.482490 -0.085754 0.088623 
0.482509 -0.093415 0.066893 
0.482510 -0.106280 0.030227 
0.482516 -0.116677 0.067568 
0.482533 -0.121918 0.017388 
0.482536 -0.088310 0.073321 
0.482543 -0.060518 0.040418 
0.482545 -0.106287 0.043237 
0.482548 -0.028160 0.059358 
0.482550 -0.116686 0.080861 
0.482557 -0.116687 0.039080 
0.482568 -0.101130 0.054005 
0.482576 -0.073097 0.053461 
0.482580 -0.114084 0.010828 
0.482584 -0.148549 0.064243 
0.482584 -0.119309 0.069872 
0.482602 -0.121935 0.015216 
0.482604 -0.129843 0.056949 
0.482605 -0.129843 0.015277 
0.482610 -0.083232 0.047163 
0.482611 -0.063035 0.090214 
0.482617 -0.129846 0.034956 
0.482622 -0.114094 0.008664 
0.482640 -0.124574 0.039237 
0.482646 -0.085782 0.027844 
0.482648 -0.083239 0.064487 
0.482661 -0.121950 0.013044 
0.482678 -0.083244 0.034258 
0.482697 -0.053030 0.079092 
0.482700 -0.124589 0.059011 
0.482705 -0.124590 0.021774 
0.482705 -0.096016 0.069176 
0.482712 -0.121963 0.010871 
0.482714 -0.060540 0.038295 
0.482715 -0.129872 0.010915 
0.482718 -0.116726 0.036914 
0.482720 -0.015803 0.076504 
0.482725 -0.106327 0.041080 
0.482726 -0.143205 0.021992 
0.482728 -0.068078 0.066354 
0.482731 -0.119345 0.061064 
0.482734 -0.080714 0.023517 
0.482745 -0.096024 0.075765 
0.482753 -0.121973 0.008699 
0.482760 -0.129884 0.032775 
0.482761 -0.085803 0.025705 
0.482777 -0.078186 0.088445 
0.482782 -0.119358 0.026071 
0.482786 -0.121981 0.006526 
0.482787 -0.088356 0.084343 
0.482788 -0.116743 0.047835 
0.482791 -0.093469 0.064748 
0.482794 -0.101177 0.051853 
0.482795 -0.078189 0.029921 
0.482798 -0.116746 0.065401 
0.482806 -0.060551 0.079253 
0.482808 -0.083267 0.045026 
0.482809 -0.121987 0.004354 
0.482815 -0.114140 0.069733 
0.482820 -0.083269 0.032120 
0.482833 -0.093478 0.034397 
0.482847 -0.088367 0.071180 
0.482847 -0.148630 0.062039 
0.482860 -0.088370 0.077755 
0.482868 -0.124632 0.048026 
0.482868 -0.116762 0.056609 
0.482870 -0.116763 0.034746 
0.482875 -0.119381 0.067703 
0.482879 -0.140568 0.008786 
0.482887 -0.098622 0.078068 
0.482887 -0.119384 0.023901 
0.482893 -0.103778 0.045392 
0.482915 -0.068104 0.090396 
0.482920 -0.078209 0.027787 
0.482920 -0.083286 0.062350 
0.482921 -0.122016 0.043585 
0.482922 -0.083286 0.088623 
0.482928 -0.154079 0.033232 
0.482930 -0.055557 0.087911 
0.482940 -0.124651 0.015246 
0.482941 -0.075680 0.084004 
0.482942 -0.135245 0.021905 
0.482945 -0.080750 0.036395 
0.482946 -0.070629 0.088267 
0.482954 -0.114172 0.052167 
0.482954 -0.083292 0.029982 
0.482960 -0.114174 0.060942 
0.482970 -0.106381 0.058541 
0.482976 -0.093505 0.032251 
0.482985 -0.119408 0.058894 
0.482986 -0.111576 0.047739 
0.482990 -0.103799 0.062854 
0.482997 -0.083299 0.042888 
0.483011 -0.101223 0.049701 
0.483013 -0.116797 0.032578 
0.483013 -0.088398 0.088801 
0.483014 -0.096077 0.038766 
0.483017 -0.129954 0.028411 
0.483028 -0.140611 0.044021 
0.483030 -0.135269 0.019716 
0.483035 -0.078228 0.025652 
0.483035 -0.053068 0.076973 
0.483044 -0.075697 0.044935 
0.483049 -0.015813 0.074396 
0.483050 -0.124679 0.010893 
0.483050 -0.083308 0.068898 
0.483051 -0.085854 0.019284 
0.483052 -0.083309 0.082036 
0.483056 -0.106400 0.036765 
0.483057 -0.065607 0.038374 
0.483059 -0.088406 0.030043 
0.483071 -0.116811 0.063233 
0.483077 -0.122055 0.061186 
0.483078 -0.083313 0.027844 
0.483085 -0.028192 0.083158 
0.483087 -0.055575 0.074852 
0.483101 -0.148708 0.059834 
0.483104 -0.116819 0.054441 
0.483106 -0.111603 0.012992 
0.483108 -0.135291 0.017527 
0.483108 -0.137959 0.024141 
0.483109 -0.093531 0.030104 
0.483133 -0.129985 0.026228 
0.483142 -0.098674 0.043150 
0.483143 -0.101250 0.036691 
0.483144 -0.088422 0.082201 
0.483146 -0.116830 0.030410 
0.483147 -0.124704 0.004362 
0.483148 -0.103833 0.076069 
0.483157 -0.111615 0.010828 
0.483158 -0.119451 0.065532 
0.483168 -0.143336 0.004406 
0.483171 -0.114224 0.050001 
0.483177 -0.083330 0.040749 
0.483177 -0.135310 0.015338 
0.483178 -0.143339 0.084347 
0.483180 -0.124713 0.054659 
0.483183 -0.088429 0.027900 
0.483184 -0.083331 0.060211 
0.483185 -0.111621 0.045575 
0.483191 -0.078253 0.066624 
0.483193 -0.083333 0.025705 
0.483207 -0.140663 0.041826 
0.483211 -0.063113 0.051226 
0.483219 -0.101266 0.047547 
0.483227 -0.073196 0.047068 
0.483228 -0.078259 0.049300 
0.483230 -0.119468 0.056722 
0.483230 -0.124726 0.030532 
0.483233 -0.075726 0.042801 
0.483234 -0.093555 0.027957 
0.483237 -0.078261 0.021381 
0.483253 -0.103856 0.060698 
0.483270 -0.116860 0.028241 
0.483274 -0.111642 0.063107 
0.483275 -0.028203 0.061592 
0.483279 -0.096130 0.064879 
0.483297 -0.106453 0.010806 
0.483298 -0.083351 0.086484 
0.483298 -0.088450 0.025757 
0.483299 -0.083351 0.023565 
0.483313 -0.093571 0.051749 
0.483325 -0.078275 0.019245 
0.483333 -0.151489 0.022123 
0.483335 -0.116875 0.061064 
0.483335 -0.130039 0.021861 
0.483335 -0.101291 0.071610 
0.483337 -0.103873 0.087179 
0.483353 -0.138029 0.048410 
0.483354 -0.124758 0.028354 
0.483366 -0.143395 0.028638 
0.483370 -0.065650 0.034118 
0.483371 -0.085911 0.032186 
0.483378 -0.114273 0.047835 
0.483386 -0.116888 0.026071 
0.483389 -0.088467 0.086658 
0.483396 -0.083368 0.021425 
0.483400 -0.083369 0.079896 
0.483404 -0.088469 0.023613 
