# .PCD v.7 - Point Cloud Data file format
VERSION .7
FIELDS x y z
SIZE 4 4 4
TYPE F F F
COUNT 1 1 1
WIDTH 1594
HEIGHT 1
POINTS 1594
DATA ascii
-0.643804 0.087439 0.065422 
-0.643800 0.067400 0.128759 
-0.643795 0.050800 0.212951 
-0.643788 0.050800 0.222362 
-0.643759 0.080737 0.073921 
-0.643749 0.037567 0.222037 
-0.643724 0.050795 0.206697 
-0.643697 0.087425 0.042577 
-0.643649 0.057418 0.173149 
-0.643613 0.094126 0.076986 
-0.643586 0.014482 0.390636 
-0.643585 0.090763 0.036906 
-0.643566 0.094119 0.045480 
-0.643564 0.040860 0.215767 
-0.643554 0.014481 0.398343 
-0.643532 0.084053 0.062491 
-0.643506 0.050777 0.197350 
-0.643502 0.067369 0.114086 
-0.643499 0.077365 0.079580 
-0.643493 0.044160 0.184952 
-0.643482 0.034251 0.260351 
-0.643473 0.064041 0.146322 
-0.643469 0.034251 0.283533 
-0.643433 0.080696 0.076751 
-0.643411 0.067359 0.140461 
-0.643403 0.050769 0.194244 
-0.643376 0.067355 0.125742 
-0.643363 0.094090 0.048318 
-0.643357 0.050766 0.128369 
-0.643300 0.044147 0.225178 
-0.643299 0.064024 0.164184 
-0.643279 0.070672 0.134606 
-0.643275 0.094077 0.079824 
-0.643265 0.094075 0.034070 
-0.643255 0.067343 0.182407 
-0.643235 0.067341 0.131582 
-0.643214 0.037536 0.244106 
-0.643211 0.030940 0.317563 
-0.643208 0.067338 0.167253 
-0.643183 0.040835 0.175704 
-0.643170 0.057375 0.206697 
-0.643147 0.064009 0.152188 
-0.643137 0.067331 0.146322 
-0.643043 0.047434 0.131183 
-0.643040 0.057363 0.200461 
-0.643033 0.047433 0.253985 
-0.642988 0.034225 0.221711 
-0.642956 0.037521 0.286749 
-0.642953 0.057355 0.197350 
-0.642931 0.050732 0.125361 
-0.642924 0.094025 0.082659 
-0.642924 0.037519 0.250444 
-0.642922 0.094025 0.053990 
-0.642914 0.034221 0.227989 
-0.642900 0.087316 0.073921 
-0.642862 0.050727 0.215767 
-0.642861 0.050727 0.218900 
-0.642846 0.050725 0.222037 
-0.642832 0.063977 0.149142 
-0.642825 0.067298 0.128564 
-0.642819 0.037513 0.218578 
-0.642818 0.050723 0.209513 
-0.642815 0.050723 0.225178 
-0.642811 0.063975 0.170073 
-0.642797 0.044112 0.244106 
-0.642795 0.067295 0.143282 
-0.642787 0.034214 0.269924 
-0.642778 0.094004 0.091297 
-0.642777 0.060654 0.179049 
-0.642772 0.037511 0.209204 
-0.642764 0.014464 0.425543 
-0.642756 0.037510 0.253618 
-0.642743 0.073942 0.149367 
-0.642734 0.057336 0.191142 
-0.642683 0.093990 0.056825 
-0.642682 0.044104 0.187765 
-0.642641 0.050709 0.200165 
-0.642619 0.040800 0.218578 
-0.642603 0.037501 0.269924 
-0.642591 0.017747 0.382447 
-0.642583 0.087273 0.117264 
-0.642574 0.087272 0.076751 
-0.642569 0.083927 0.088192 
-0.642561 0.093972 0.085494 
-0.642555 0.034202 0.283130 
-0.642518 0.087264 0.045341 
-0.642496 0.067263 0.149142 
-0.642472 0.070584 0.128564 
-0.642467 0.047391 0.133995 
-0.642457 0.067259 0.185228 
-0.642439 0.067257 0.140249 
-0.642431 0.093953 0.059658 
-0.642412 0.040787 0.178514 
-0.642379 0.050688 0.128174 
-0.642346 0.017741 0.370999 
-0.642342 0.034191 0.263160 
-0.642309 0.017740 0.413304 
-0.642306 0.040780 0.237436 
-0.642289 0.073889 0.111093 
-0.642269 0.083888 0.065222 
-0.642266 0.057294 0.209513 
-0.642261 0.067239 0.131383 
-0.642245 0.034186 0.276320 
-0.642236 0.087226 0.079580 
-0.642227 0.034185 0.286342 
-0.642219 0.021024 0.320369 
-0.642181 0.083877 0.091018 
-0.642168 0.090563 0.056738 
-0.642167 0.093915 0.062491 
-0.642167 0.067229 0.146101 
-0.642163 0.057285 0.203276 
-0.642162 0.093914 0.051076 
-0.642158 0.037475 0.263160 
-0.642145 0.037474 0.246915 
-0.642119 0.057281 0.178782 
-0.642089 0.073866 0.152188 
-0.642080 0.047363 0.227989 
-0.642070 0.087204 0.120093 
-0.642067 0.063901 0.172890 
-0.642062 0.037469 0.276320 
-0.641981 0.083851 0.068047 
-0.641945 0.040757 0.246915 
-0.641928 0.037461 0.266347 
-0.641925 0.083843 0.099640 
-0.641917 0.050652 0.218578 
-0.641917 0.090528 0.059567 
-0.641901 0.050651 0.212324 
-0.641897 0.057261 0.193955 
-0.641877 0.047348 0.136805 
-0.641874 0.050649 0.224848 
-0.641866 0.034165 0.269537 
-0.641861 0.037457 0.221386 
-0.641859 0.044048 0.190574 
-0.641843 0.067195 0.151959 
-0.641829 0.050645 0.227989 
-0.641827 0.037455 0.253252 
-0.641824 0.067193 0.143066 
-0.641816 0.050644 0.130984 
-0.641801 0.077160 0.085102 
-0.641764 0.050640 0.202976 
-0.641732 0.067183 0.172890 
-0.641728 0.057246 0.160635 
-0.641728 0.044039 0.246915 
-0.641701 0.037448 0.289556 
-0.641695 0.050635 0.234283 
-0.641684 0.067178 0.134199 
-0.641680 0.083811 0.070872 
-0.641661 0.040739 0.221386 
-0.641645 0.037445 0.256425 
-0.641633 0.040737 0.224519 
-0.641628 0.040737 0.181322 
-0.641622 0.077139 0.093700 
-0.641619 0.080469 0.090879 
-0.641604 0.034151 0.272730 
-0.641599 0.050627 0.196766 
-0.641590 0.040734 0.227656 
-0.641568 0.050625 0.116374 
-0.641545 0.087132 0.122919 
-0.641514 0.067160 0.169819 
-0.641512 0.063846 0.154774 
-0.641488 0.087124 0.099640 
-0.641487 0.083786 0.102464 
-0.641447 0.037433 0.259602 
-0.641426 0.077115 0.087922 
-0.641423 0.073790 0.155007 
-0.641423 0.060526 0.172632 
-0.641421 0.037432 0.272730 
-0.641349 0.057212 0.212324 
-0.641344 0.087105 0.093843 
-0.641336 0.057211 0.181593 
-0.641276 0.047303 0.139612 
-0.641273 0.057206 0.206088 
-0.641266 0.040714 0.240242 
-0.641219 0.080419 0.093700 
-0.641210 0.077089 0.096519 
-0.641206 0.093774 0.088192 
-0.641197 0.060505 0.184676 
-0.641189 0.034129 0.265964 
-0.641177 0.067125 0.154774 
-0.641176 0.093770 0.050998 
-0.641138 0.057194 0.199868 
-0.641119 0.040704 0.190290 
-0.641096 0.067117 0.137013 
-0.641082 0.047289 0.230796 
-0.641056 0.050584 0.119181 
-0.641039 0.077069 0.090740 
-0.641038 0.083727 0.105286 
-0.641035 0.034121 0.279124 
-0.641023 0.043990 0.193379 
-0.640975 0.067104 0.175704 
-0.640973 0.034118 0.289146 
-0.640973 0.050578 0.218257 
-0.640971 0.050577 0.215132 
-0.640961 0.050577 0.221386 
-0.640950 0.093737 0.053824 
-0.640924 0.077055 0.110923 
-0.640903 0.087045 0.082281 
-0.640892 0.063784 0.148692 
-0.640874 0.067094 0.128174 
-0.640852 0.037398 0.279124 
-0.640846 0.087037 0.065121 
-0.640839 0.050567 0.130785 
-0.640834 0.063778 0.157585 
-0.640833 0.040686 0.184125 
-0.640823 0.073721 0.113739 
-0.640819 0.093717 0.091018 
-0.640805 0.024258 0.316236 
-0.640786 0.077038 0.099336 
-0.640771 0.067083 0.172632 
-0.640750 0.011141 0.432255 
-0.640744 0.070394 0.137013 
-0.640737 0.050559 0.199572 
-0.640718 0.037391 0.256055 
-0.640711 0.093702 0.056650 
-0.640667 0.060455 0.175441 
-0.640662 0.047258 0.142417 
-0.640643 0.017694 0.351602 
-0.640640 0.077021 0.093556 
-0.640593 0.040671 0.230459 
-0.640576 0.083667 0.108105 
-0.640566 0.073691 0.131183 
-0.640559 0.086998 0.067943 
-0.640541 0.057140 0.184401 
-0.640532 0.050543 0.121986 
-0.640501 0.017690 0.416103 
-0.640500 0.067054 0.157585 
-0.640437 0.076996 0.113739 
-0.640424 0.050534 0.127783 
-0.640420 0.093659 0.093843 
-0.640419 0.076994 0.107940 
-0.640410 0.034088 0.275531 
-0.640404 0.076992 0.119546 
-0.640389 0.060429 0.187485 
-0.640376 0.043946 0.166001 
-0.640361 0.076987 0.140037 
-0.640349 0.076986 0.102151 
-0.640311 0.067035 0.130984 
-0.640311 0.037367 0.262403 
-0.640259 0.086957 0.070763 
-0.640241 0.063719 0.151501 
-0.640235 0.086954 0.033861 
-0.640210 0.067024 0.154540 
-0.640207 0.067024 0.178514 
-0.640170 0.037359 0.302437 
-0.640144 0.070328 0.139824 
-0.640144 0.063710 0.160393 
-0.640140 0.080283 0.079214 
-0.640133 0.037357 0.249357 
-0.640103 0.083605 0.110923 
-0.640070 0.014403 0.427788 
-0.640033 0.030787 0.319477 
-0.640018 0.050502 0.221060 
-0.640016 0.067004 0.175441 
-0.640008 0.093599 0.096667 
-0.639995 0.050500 0.124788 
-0.639992 0.050500 0.224189 
-0.639991 0.073625 0.133995 
-0.639969 0.037347 0.252519 
-0.639963 0.093592 0.053742 
-0.639946 0.086915 0.073581 
-0.639933 0.040629 0.249357 
-0.639923 0.020949 0.322720 
-0.639901 0.076932 0.104964 
-0.639893 0.050492 0.230459 
-0.639880 0.076929 0.122359 
-0.639874 0.037341 0.205173 
-0.639868 0.057080 0.190290 
-0.639863 0.050490 0.202374 
-0.639826 0.080244 0.096371 
-0.639810 0.066982 0.160393 
-0.639791 0.080240 0.082029 
-0.639781 0.086893 0.090740 
-0.639759 0.040618 0.211385 
-0.639749 0.040617 0.223859 
-0.639749 0.076914 0.142849 
-0.639737 0.066975 0.133792 
-0.639733 0.057068 0.187205 
-0.639717 0.043901 0.249357 
-0.639630 0.037327 0.281922 
-0.639596 0.037325 0.258852 
-0.639585 0.093537 0.099488 
-0.639583 0.040607 0.233257 
-0.639582 0.043891 0.156872 
-0.639577 0.063653 0.154307 
-0.639559 0.086862 0.084972 
-0.639554 0.043889 0.252519 
-0.639525 0.037321 0.291944 
-0.639477 0.096863 0.053742 
-0.639475 0.093521 0.059384 
-0.639440 0.076877 0.107775 
-0.639426 0.066942 0.181322 
-0.639424 0.057041 0.208586 
-0.639397 0.083513 0.073468 
-0.639382 0.050452 0.246198 
-0.639328 0.040591 0.192803 
-0.639289 0.073544 0.122173 
-0.639281 0.043871 0.236397 
-0.639281 0.040588 0.242689 
-0.639267 0.014385 0.399558 
-0.639239 0.096827 0.056563 
-0.639188 0.034023 0.223530 
-0.639186 0.086812 0.087787 
-0.639161 0.037300 0.265199 
-0.639152 0.034021 0.288324 
-0.639150 0.040579 0.245840 
-0.639142 0.047146 0.255684 
-0.639108 0.066909 0.163199 
-0.639075 0.050428 0.220735 
-0.639060 0.083469 0.122359 
-0.639050 0.050426 0.223859 
-0.639030 0.093456 0.096519 
-0.639010 0.037291 0.211072 
-0.639010 0.050423 0.226988 
-0.639005 0.037291 0.223530 
-0.638977 0.093448 0.053659 
-0.638976 0.050420 0.205173 
-0.638972 0.086783 0.096371 
-0.638962 0.040567 0.265199 
-0.638961 0.076819 0.116374 
-0.638921 0.037286 0.268377 
-0.638904 0.076812 0.122173 
-0.638893 0.043844 0.159668 
-0.638863 0.037282 0.255314 
-0.638849 0.066882 0.172114 
-0.638846 0.037281 0.305232 
-0.638841 0.040560 0.252152 
-0.638804 0.076800 0.151501 
-0.638800 0.086759 0.090601 
-0.638783 0.066875 0.187205 
-0.638740 0.093413 0.056476 
-0.638727 0.063569 0.166001 
-0.638724 0.040552 0.204868 
-0.638665 0.037271 0.271558 
-0.638638 0.086737 0.076281 
-0.638635 0.030720 0.322270 
-0.638634 0.076780 0.133792 
-0.638629 0.066858 0.169055 
-0.638619 0.030719 0.248632 
-0.638578 0.033990 0.284715 
-0.638576 0.066853 0.118999 
-0.638567 0.066852 0.157110 
-0.638561 0.070154 0.142417 
-0.638552 0.043821 0.226654 
-0.638549 0.086725 0.099184 
-0.638539 0.073458 0.145439 
-0.638512 0.056959 0.211385 
-0.638510 0.020903 0.325511 
-0.638510 0.096717 0.039498 
-0.638490 0.093377 0.059292 
-0.638482 0.040537 0.195596 
-0.638464 0.093373 0.030993 
-0.638448 0.043814 0.255314 
-0.638402 0.086705 0.093413 
-0.638393 0.037255 0.274741 
-0.638388 0.083381 0.130984 
-0.638369 0.076748 0.124979 
-0.638363 0.086700 0.047873 
-0.638333 0.096690 0.042315 
-0.638325 0.093353 0.033808 
-0.638306 0.020896 0.332458 
-0.638305 0.050367 0.248994 
-0.638302 0.086692 0.079092 
-0.638276 0.066822 0.154073 
-0.638264 0.040523 0.261646 
-0.638253 0.083364 0.090462 
-0.638247 0.037246 0.294736 
-0.638235 0.076732 0.130785 
-0.638228 0.093338 0.062107 
-0.638194 0.073418 0.142417 
-0.638192 0.043796 0.162461 
-0.638172 0.093330 0.102151 
-0.638161 0.063512 0.186925 
-0.638155 0.033968 0.229445 
-0.638155 0.076722 0.145439 
-0.638150 0.086671 0.050684 
-0.638145 0.096662 0.045132 
-0.638143 0.066808 0.162953 
-0.638141 0.050354 0.217292 
-0.638115 0.086666 0.101995 
-0.638109 0.050352 0.223530 
-0.638096 0.066803 0.174915 
-0.638089 0.083342 0.076163 
-0.638086 0.066802 0.193091 
-0.638085 0.037237 0.213863 
-0.638070 0.050348 0.226654 
-0.638055 0.030692 0.291114 
-0.638053 0.066798 0.121799 
-0.638048 0.043786 0.261646 
-0.638024 0.047064 0.258478 
-0.638017 0.050344 0.229783 
-0.638010 0.063497 0.183849 
-0.638008 0.093306 0.039437 
-0.638004 0.083331 0.099032 
-0.637988 0.076702 0.110415 
-0.637958 0.056910 0.189722 
-0.637954 0.086645 0.081902 
-0.637953 0.093298 0.064921 
-0.637944 0.096631 0.047947 
-0.637937 0.070085 0.145218 
-0.637925 0.086640 0.053493 
-0.637890 0.033954 0.291114 
-0.637886 0.030683 0.261267 
-0.637864 0.050332 0.236051 
-0.637856 0.083312 0.093269 
-0.637834 0.073377 0.139400 
-0.637832 0.093281 0.042250 
-0.637831 0.030681 0.284308 
-0.637826 0.040495 0.207659 
-0.637825 0.043771 0.264816 
-0.637822 0.076682 0.127783 
-0.637801 0.040494 0.267990 
-0.637765 0.050324 0.239191 
-0.637753 0.083298 0.078970 
-0.637731 0.096599 0.050762 
-0.637711 0.089935 0.062011 
-0.637688 0.030674 0.294317 
-0.637667 0.086606 0.104803 
-0.637667 0.066758 0.168800 
-0.637664 0.083287 0.113392 
-0.637663 0.089928 0.101995 
-0.637656 0.083286 0.087517 
-0.637644 0.093253 0.045062 
-0.637642 0.083284 0.107610 
-0.637621 0.070051 0.151042 
-0.637594 0.086596 0.084711 
-0.637593 0.056877 0.217292 
-0.637587 0.056877 0.214180 
-0.637570 0.083274 0.101838 
-0.637547 0.040478 0.271167 
-0.637546 0.040478 0.258103 
-0.637537 0.030667 0.277529 
-0.637523 0.033934 0.248269 
-0.637519 0.076646 0.148242 
-0.637511 0.037204 0.308021 
-0.637467 0.076639 0.157110 
-0.637451 0.076637 0.139400 
-0.637446 0.083258 0.096075 
-0.637437 0.089896 0.064821 
-0.637430 0.066733 0.165751 
-0.637427 0.024131 0.290699 
-0.637414 0.066731 0.202074 
-0.637405 0.083253 0.081776 
-0.637394 0.076631 0.124788 
-0.637391 0.030660 0.304371 
-0.637343 0.063431 0.189722 
-0.637331 0.066723 0.177713 
-0.637301 0.070016 0.148017 
-0.637284 0.093200 0.087652 
-0.637269 0.096529 0.056389 
-0.637260 0.047007 0.232573 
-0.637242 0.066713 0.195888 
-0.637230 0.093193 0.050684 
-0.637229 0.086546 0.113392 
-0.637224 0.030652 0.325057 
-0.637222 0.086545 0.087517 
-0.637216 0.050281 0.251786 
-0.637216 0.089865 0.104803 
-0.637208 0.086543 0.107610 
-0.637190 0.037185 0.277529 
-0.637180 0.066707 0.162707 
-0.637151 0.089856 0.067629 
-0.637150 0.033914 0.232231 
-0.637143 0.040452 0.248269 
-0.637128 0.056836 0.192514 
-0.637123 0.083216 0.104643 
-0.637119 0.096506 0.028134 
-0.637078 0.050270 0.229445 
-0.637077 0.076592 0.136389 
-0.637046 0.083206 0.084580 
-0.637019 0.096491 0.059201 
-0.637011 0.050265 0.232573 
-0.637010 0.066689 0.189722 
-0.637008 0.076584 0.116018 
-0.636991 0.096487 0.030945 
-0.636981 0.033905 0.290699 
-0.636970 0.089830 0.093269 
-0.636961 0.076578 0.104482 
-0.636958 0.096482 0.047873 
-0.636957 0.037171 0.297523 
-0.636951 0.040440 0.287503 
-0.636915 0.066679 0.159668 
-0.636893 0.046980 0.261267 
-0.636887 0.037167 0.235359 
-0.636871 0.076568 0.151042 
-0.636853 0.089814 0.070436 
-0.636848 0.076565 0.127588 
-0.636831 0.050251 0.238841 
-0.636810 0.040431 0.254572 
-0.636755 0.040427 0.201172 
-0.636745 0.096450 0.050684 
-0.636741 0.030628 0.264051 
-0.636737 0.086479 0.110415 
-0.636690 0.076546 0.133385 
-0.636675 0.093111 0.084711 
-0.636672 0.040422 0.198089 
-0.636666 0.043691 0.267603 
-0.636658 0.083155 0.118999 
-0.636643 0.056793 0.220083 
-0.636616 0.033886 0.293899 
-0.636601 0.040418 0.290699 
-0.636586 0.030621 0.287092 
-0.636521 0.096416 0.053493 
-0.636513 0.063348 0.192514 
-0.636510 0.063348 0.174389 
-0.636503 0.093086 0.093269 
-0.636499 0.076523 0.118817 
-0.636480 0.076521 0.139188 
-0.636467 0.066632 0.165500 
-0.636464 0.056777 0.232573 
-0.636463 0.056777 0.201472 
-0.636461 0.079822 0.098727 
-0.636435 0.033876 0.251053 
-0.636406 0.043673 0.257729 
-0.636399 0.030612 0.297100 
-0.636373 0.066622 0.177446 
-0.636360 0.040402 0.273952 
-0.636325 0.033870 0.225653 
-0.636321 0.030608 0.280311 
-0.636311 0.093058 0.113392 
-0.636289 0.076498 0.130386 
-0.636285 0.056761 0.195304 
-0.636258 0.093050 0.061916 
-0.636257 0.073195 0.127393 
-0.636254 0.086414 0.113218 
-0.636251 0.096375 0.076163 
-0.636242 0.046932 0.235359 
-0.636216 0.066606 0.162461 
-0.636211 0.076488 0.153840 
-0.636197 0.093041 0.036509 
-0.636193 0.083095 0.110246 
-0.636163 0.037125 0.310805 
-0.636159 0.037125 0.267217 
-0.636132 0.033860 0.235013 
-0.636107 0.027339 0.320920 
-0.636094 0.037121 0.228769 
-0.636083 0.060022 0.198386 
-0.636074 0.050191 0.232231 
-0.636057 0.066589 0.189438 
-0.636056 0.040383 0.251053 
-0.636048 0.024078 0.349197 
-0.636041 0.040382 0.287092 
-0.636035 0.096342 0.059109 
-0.636031 0.076467 0.110076 
-0.636031 0.076467 0.115841 
-0.636030 0.037117 0.231889 
-0.636027 0.079768 0.101525 
-0.636001 0.030593 0.300304 
-0.635993 0.050185 0.235359 
-0.635984 0.093010 0.064721 
-0.635978 0.076460 0.121613 
-0.635975 0.037114 0.280311 
-0.635920 0.073157 0.156634 
-0.635893 0.083055 0.092982 
-0.635883 0.040372 0.254202 
-0.635864 0.096316 0.033704 
-0.635859 0.099644 0.042184 
-0.635856 0.037107 0.238140 
-0.635801 0.030583 0.327837 
-0.635781 0.089663 0.107445 
-0.635753 0.092977 0.076046 
-0.635750 0.046896 0.264051 
-0.635746 0.063272 0.177178 
-0.635743 0.066556 0.168291 
-0.635718 0.076429 0.133181 
-0.635713 0.096293 0.036509 
-0.635709 0.033838 0.293480 
-0.635699 0.092969 0.067525 
-0.635698 0.056708 0.213545 
-0.635680 0.056707 0.222870 
-0.635671 0.063265 0.195304 
-0.635660 0.037095 0.283495 
-0.635655 0.037095 0.300304 
-0.635604 0.083018 0.124598 
-0.635597 0.066541 0.180236 
-0.635594 0.056699 0.229107 
-0.635592 0.027316 0.324149 
-0.635591 0.096275 0.073242 
-0.635584 0.030573 0.266830 
-0.635582 0.079712 0.104321 
-0.635582 0.056698 0.204258 
-0.635560 0.063254 0.192226 
-0.635558 0.089631 0.073128 
-0.635549 0.096269 0.039315 
-0.635549 0.076409 0.112871 
-0.635523 0.076406 0.107115 
-0.635505 0.066531 0.165250 
-0.635485 0.083002 0.095780 
-0.635477 0.027311 0.289870 
-0.635469 0.092935 0.047725 
-0.635447 0.056686 0.235359 
-0.635436 0.073101 0.115663 
-0.635428 0.024055 0.313582 
-0.635418 0.092928 0.078849 
-0.635401 0.092925 0.070327 
-0.635394 0.024054 0.352456 
-0.635374 0.096242 0.042119 
-0.635340 0.066514 0.195304 
-0.635335 0.033818 0.253831 
-0.635329 0.040337 0.293480 
-0.635329 0.037076 0.286681 
-0.635329 0.033817 0.296677 
-0.635314 0.092912 0.107445 
-0.635314 0.030560 0.256980 
-0.635311 0.089596 0.110246 
-0.635295 0.063227 0.186086 
-0.635266 0.050127 0.267217 
-0.635266 0.037072 0.310366 
-0.635259 0.099550 0.050605 
-0.635253 0.073080 0.171338 
-0.635235 0.073078 0.159426 
-0.635234 0.050125 0.207041 
-0.635229 0.066503 0.192226 
-0.635215 0.059941 0.201172 
-0.635212 0.046856 0.238140 
-0.635203 0.037069 0.225319 
-0.635186 0.096213 0.044922 
-0.635172 0.024045 0.348716 
-0.635171 0.086267 0.124598 
-0.635161 0.040326 0.276731 
-0.635150 0.079657 0.112871 
-0.635135 0.076359 0.135974 
-0.635124 0.079654 0.107115 
-0.635102 0.033805 0.237790 
-0.635092 0.092880 0.073128 
-0.635088 0.063206 0.219758 
-0.635072 0.092877 0.081650 
-0.635059 0.082947 0.127393 
-0.635058 0.050111 0.235013 
-0.635038 0.011041 0.440607 
-0.635007 0.066479 0.171079 
-0.634989 0.037056 0.269995 
-0.634971 0.063195 0.179964 
-0.634935 0.096175 0.078849 
-0.634930 0.024036 0.344985 
-0.634928 0.073043 0.118452 
-0.634902 0.076331 0.141767 
-0.634883 0.014286 0.428341 
-0.634854 0.050095 0.241272 
-0.634853 0.076325 0.159426 
-0.634852 0.073034 0.124216 
-0.634828 0.089528 0.113044 
-0.634817 0.063180 0.198089 
-0.634809 0.066459 0.183023 
-0.634803 0.037045 0.313582 
-0.634787 0.063177 0.176911 
-0.634785 0.040302 0.289870 
-0.634770 0.040301 0.256980 
-0.634770 0.092833 0.075928 
-0.634764 0.056625 0.216328 
-0.634748 0.037042 0.283088 
-0.634741 0.030532 0.250320 
-0.634740 0.056623 0.222541 
-0.634734 0.082904 0.112871 
-0.634720 0.063170 0.195011 
-0.634715 0.092825 0.067420 
-0.634706 0.056620 0.225653 
-0.634695 0.092822 0.098727 
-0.634688 0.030530 0.334311 
-0.634670 0.030529 0.316800 
-0.634655 0.079595 0.115663 
-0.634654 0.079595 0.109907 
-0.634626 0.086193 0.127393 
-0.634617 0.076297 0.147567 
-0.634595 0.046810 0.266830 
-0.634590 0.063157 0.173863 
-0.634589 0.050074 0.247545 
-0.634589 0.096123 0.081650 
-0.634577 0.043548 0.269995 
-0.634545 0.072999 0.135766 
-0.634538 0.072998 0.162214 
-0.634538 0.024021 0.306283 
-0.634520 0.024021 0.351971 
-0.634517 0.096112 0.064620 
-0.634505 0.072994 0.174126 
-0.634486 0.066425 0.198089 
-0.634471 0.076279 0.124216 
-0.634456 0.066422 0.176911 
-0.634436 0.092784 0.078727 
-0.634419 0.037023 0.286270 
-0.634419 0.020769 0.326921 
-0.634418 0.056594 0.238140 
-0.634418 0.092781 0.070218 
-0.634415 0.030516 0.269604 
-0.634367 0.030514 0.330611 
-0.634356 0.102734 0.042119 
-0.634343 0.092770 0.087248 
-0.634341 0.037019 0.303079 
-0.634335 0.059858 0.203954 
-0.634327 0.050053 0.209819 
-0.634311 0.037017 0.215685 
-0.634282 0.076256 0.144556 
-0.634263 0.092759 0.101525 
-0.634258 0.066401 0.173863 
-0.634253 0.089447 0.075811 
-0.634243 0.037013 0.296255 
-0.634240 0.082839 0.115663 
-0.634207 0.027257 0.292643 
-0.634181 0.030505 0.282681 
-0.634175 0.030505 0.320019 
-0.634173 0.027255 0.326921 
-0.634155 0.096057 0.028003 
-0.634148 0.079532 0.118452 
-0.634141 0.063112 0.213228 
-0.634128 0.063111 0.222541 
-0.634109 0.092736 0.073015 
-0.634098 0.050035 0.269995 
-0.634095 0.024005 0.309489 
-0.634090 0.092733 0.081524 
-0.634074 0.037003 0.289455 
-0.634072 0.079522 0.124216 
-0.634062 0.099362 0.039253 
-0.634060 0.069660 0.153140 
-0.634055 0.024003 0.316354 
-0.634045 0.040255 0.296255 
-0.634030 0.033748 0.299451 
-0.634030 0.050030 0.237790 
-0.634021 0.063100 0.203954 
-0.634008 0.066375 0.185806 
-0.633953 0.096027 0.078727 
-0.633932 0.082799 0.132977 
-0.633926 0.076214 0.127003 
-0.633922 0.050021 0.240917 
-0.633910 0.063089 0.164749 
-0.633872 0.040244 0.269604 
-0.633853 0.066359 0.182747 
-0.633851 0.023995 0.355227 
-0.633849 0.089390 0.033547 
-0.633841 0.059811 0.188585 
-0.633822 0.105977 0.042119 
-0.633820 0.066355 0.167782 
-0.633818 0.092694 0.104321 
-0.633817 0.056541 0.219107 
-0.633814 0.017505 0.369769 
-0.633807 0.036987 0.272767 
-0.633767 0.056536 0.225319 
-0.633757 0.086074 0.121426 
-0.633740 0.056534 0.206732 
-0.633738 0.095994 0.036396 
-0.633733 0.082773 0.118452 
-0.633732 0.092681 0.084319 
-0.633727 0.082772 0.138764 
-0.633700 0.099306 0.044853 
-0.633682 0.066341 0.179693 
-0.633645 0.040230 0.259752 
-0.633645 0.030479 0.253090 
-0.633639 0.040230 0.282681 
-0.633635 0.105945 0.044922 
-0.633629 0.079467 0.121240 
-0.633620 0.066334 0.200871 
-0.633609 0.040228 0.272767 
-0.633608 0.095974 0.081524 
-0.633593 0.076174 0.112523 
-0.633578 0.056519 0.234667 
-0.633562 0.099284 0.092982 
-0.633528 0.079454 0.127003 
-0.633517 0.040222 0.292643 
-0.633506 0.049988 0.250320 
-0.633503 0.023982 0.337080 
-0.633501 0.102596 0.064620 
-0.633501 0.099274 0.047651 
-0.633500 0.033720 0.323241 
-0.633454 0.092640 0.078605 
-0.633408 0.049981 0.212593 
-0.633395 0.043467 0.272767 
-0.633390 0.069586 0.155921 
-0.633377 0.056501 0.240917 
-0.633366 0.036962 0.218456 
-0.633362 0.092627 0.118635 
-0.633352 0.014252 0.388216 
-0.633351 0.082723 0.135766 
-0.633321 0.033710 0.233975 
-0.633314 0.076140 0.153140 
-0.633305 0.095929 0.075811 
-0.633274 0.040206 0.309489 
-0.633264 0.082712 0.115485 
-0.633250 0.095920 0.084319 
-0.633234 0.030460 0.272373 
-0.633224 0.030459 0.337080 
-0.633216 0.102550 0.067420 
-0.633215 0.082706 0.121240 
-0.633209 0.017488 0.399676 
-0.633209 0.063020 0.216007 
-0.633196 0.066290 0.188585 
-0.633194 0.076126 0.161968 
-0.633188 0.063018 0.167527 
-0.633174 0.023970 0.344031 
-0.633158 0.092597 0.095632 
-0.633129 0.063012 0.206732 
-0.633120 0.082693 0.141551 
-0.633119 0.033700 0.319569 
-0.633085 0.066278 0.170561 
-0.633066 0.099206 0.053245 
-0.633056 0.063004 0.179422 
-0.633054 0.066275 0.185526 
-0.633016 0.059733 0.191362 
-0.633002 0.062999 0.200570 
-0.632989 0.049948 0.240563 
-0.632985 0.102512 0.047651 
-0.632980 0.092571 0.089905 
-0.632979 0.023962 0.354739 
-0.632943 0.030446 0.285449 
-0.632937 0.089261 0.078483 
-0.632925 0.027202 0.295410 
-0.632920 0.102502 0.070218 
-0.632918 0.049942 0.272767 
-0.632907 0.023960 0.340316 
-0.632897 0.066258 0.182471 
-0.632894 0.092558 0.109907 
-0.632868 0.049938 0.243690 
-0.632867 0.072805 0.164749 
-0.632859 0.056455 0.221881 
-0.632830 0.099169 0.056040 
-0.632828 0.056452 0.224985 
-0.632821 0.095855 0.061628 
-0.632818 0.040177 0.305849 
-0.632808 0.036929 0.292224 
-0.632799 0.066248 0.206732 
-0.632781 0.056448 0.228093 
-0.632774 0.030438 0.322787 
-0.632773 0.102478 0.050448 
-0.632760 0.076073 0.182747 
-0.632749 0.040173 0.299024 
-0.632747 0.092537 0.067211 
-0.632743 0.066242 0.203649 
-0.632742 0.027194 0.329688 
-0.632739 0.092536 0.098423 
-0.632739 0.023953 0.369266 
-0.632719 0.033679 0.302218 
-0.632707 0.069511 0.158700 
-0.632684 0.082636 0.124025 
-0.632683 0.085929 0.127003 
-0.632672 0.066235 0.200570 
-0.632669 0.023951 0.319119 
-0.632658 0.020711 0.347273 
-0.632653 0.011000 0.422788 
-0.632645 0.076060 0.155921 
-0.632612 0.036918 0.275535 
-0.632612 0.102452 0.073015 
-0.632592 0.046663 0.279103 
-0.632591 0.089213 0.081271 
-0.632586 0.066226 0.197496 
-0.632586 0.092513 0.092696 
-0.632583 0.099130 0.058835 
-0.632552 0.056428 0.237440 
-0.632523 0.023945 0.291805 
-0.632519 0.102437 0.064520 
-0.632516 0.033668 0.227417 
-0.632508 0.040158 0.262520 
-0.632496 0.059684 0.206423 
-0.632487 0.076041 0.164749 
-0.632484 0.014232 0.395319 
-0.632455 0.062945 0.170302 
-0.632433 0.036907 0.295410 
-0.632415 0.040152 0.275535 
-0.632412 0.095793 0.109907 
-0.632411 0.049902 0.253090 
-0.632410 0.020703 0.357991 
-0.632408 0.036906 0.221222 
-0.632405 0.079313 0.132570 
-0.632386 0.102415 0.041988 
-0.632378 0.069475 0.179422 
-0.632360 0.095785 0.104160 
-0.632346 0.049897 0.279103 
-0.632342 0.040147 0.302218 
-0.632339 0.066200 0.173337 
-0.632324 0.056407 0.243690 
-0.632323 0.099090 0.061628 
-0.632320 0.036901 0.278700 
-0.632291 0.102400 0.075811 
-0.632271 0.062926 0.182196 
-0.632267 0.062926 0.215685 
-0.632265 0.095771 0.067211 
-0.632254 0.062924 0.212593 
-0.632235 0.102391 0.067316 
-0.632234 0.089163 0.084058 
-0.632232 0.076010 0.161722 
-0.632226 0.062922 0.209506 
-0.632202 0.043385 0.275535 
-0.632199 0.102385 0.044783 
-0.632192 0.069454 0.176377 
-0.632183 0.062917 0.206423 
-0.632178 0.059654 0.194134 
-0.632165 0.027169 0.343554 
-0.632162 0.049882 0.237090 
-0.632147 0.072723 0.167527 
-0.632141 0.082565 0.126808 
-0.632135 0.027168 0.315461 
-0.632128 0.085853 0.129788 
-0.632125 0.062912 0.203344 
-0.632117 0.036889 0.312255 
-0.632107 0.023929 0.354250 
-0.632100 0.020693 0.329226 
-0.632097 0.020693 0.372532 
-0.632086 0.033645 0.326006 
-0.632053 0.095739 0.030705 
-0.632000 0.102353 0.047577 
-0.631991 0.082546 0.132570 
-0.631969 0.095726 0.070001 
-0.631962 0.075978 0.185526 
-0.631939 0.102343 0.070110 
-0.631937 0.049865 0.243331 
-0.631921 0.092416 0.115485 
-0.631915 0.095718 0.033494 
-0.631905 0.095716 0.106950 
-0.631898 0.023921 0.350517 
-0.631897 0.027158 0.339843 
-0.631890 0.056369 0.209193 
-0.631871 0.092409 0.121240 
-0.631865 0.092408 0.104000 
-0.631865 0.089110 0.086843 
-0.631857 0.085817 0.115307 
-0.631847 0.040116 0.298598 
-0.631843 0.023919 0.311813 
-0.631818 0.033631 0.301788 
-0.631818 0.049855 0.262520 
-0.631815 0.040114 0.281868 
-0.631802 0.049854 0.246457 
-0.631795 0.066143 0.203344 
-0.631789 0.102319 0.050370 
-0.631784 0.056359 0.230863 
-0.631771 0.092394 0.127003 
-0.631767 0.027152 0.350517 
-0.631761 0.092393 0.098271 
-0.631749 0.030388 0.339843 
-0.631711 0.020680 0.361245 
-0.631709 0.033625 0.294987 
-0.631672 0.092380 0.027872 
-0.631661 0.095680 0.072789 
-0.631652 0.014214 0.390976 
-0.631635 0.075938 0.179422 
-0.631631 0.027146 0.298171 
-0.631631 0.102293 0.072902 
-0.631594 0.069389 0.182196 
-0.631592 0.046589 0.268822 
-0.631587 0.082493 0.129588 
-0.631576 0.102284 0.039131 
-0.631566 0.102283 0.053162 
-0.631546 0.092361 0.030657 
-0.631535 0.082486 0.144115 
-0.631532 0.020674 0.343077 
-0.631526 0.075925 0.164499 
-0.631519 0.033615 0.230179 
-0.631514 0.056335 0.240209 
-0.631484 0.089057 0.089627 
-0.631467 0.092350 0.069892 
-0.631438 0.036849 0.223984 
-0.631429 0.023904 0.332448 
-0.631419 0.066104 0.191074 
-0.631416 0.092342 0.118270 
-0.631410 0.092341 0.106785 
-0.631408 0.092341 0.033442 
-0.631397 0.033608 0.304980 
-0.631377 0.075907 0.143894 
-0.631362 0.030370 0.325548 
-0.631359 0.040085 0.265283 
-0.631353 0.085748 0.118088 
-0.631342 0.092331 0.124025 
-0.631331 0.102245 0.055953 
-0.631305 0.049815 0.255856 
-0.631299 0.027132 0.332448 
-0.631281 0.062828 0.209193 
-0.631245 0.023897 0.294564 
-0.631235 0.017434 0.350032 
-0.631210 0.040075 0.278297 
-0.631167 0.102218 0.027916 
-0.631159 0.092305 0.072676 
-0.631157 0.085721 0.129588 
-0.631153 0.075880 0.188302 
-0.631146 0.092303 0.081145 
-0.631144 0.066075 0.184966 
-0.631141 0.036832 0.298171 
-0.631138 0.020661 0.350032 
-0.631123 0.023892 0.372025 
-0.631084 0.102205 0.058743 
-0.631050 0.069329 0.161230 
-0.631041 0.102198 0.030705 
-0.631028 0.079141 0.129389 
-0.630996 0.043302 0.278297 
-0.630995 0.020657 0.364499 
-0.630980 0.079134 0.143894 
-0.630980 0.066058 0.212276 
-0.630967 0.030351 0.294564 
-0.630959 0.033585 0.308174 
-0.630958 0.095573 0.112523 
-0.630951 0.066055 0.209193 
-0.630943 0.092273 0.109568 
-0.630907 0.066050 0.206114 
-0.630905 0.082404 0.146892 
-0.630903 0.102175 0.033494 
-0.630899 0.092267 0.121053 
-0.630853 0.095557 0.061436 
-0.630848 0.066044 0.203039 
-0.630840 0.092258 0.075458 
-0.630825 0.102163 0.061532 
-0.630820 0.082393 0.138127 
-0.630818 0.069303 0.170043 
-0.630816 0.027111 0.311371 
-0.630798 0.069301 0.184966 
-0.630792 0.023879 0.346311 
-0.630789 0.092251 0.083928 
-0.630784 0.030342 0.287797 
-0.630775 0.066036 0.199969 
-0.630775 0.056269 0.233628 
-0.630753 0.102151 0.036283 
-0.630737 0.036808 0.301357 
-0.630724 0.049769 0.249220 
-0.630696 0.059514 0.218130 
-0.630695 0.098835 0.027872 
-0.630687 0.066027 0.196903 
-0.630685 0.088944 0.095188 
-0.630670 0.049765 0.265283 
-0.630661 0.027105 0.346311 
-0.630659 0.020646 0.331983 
-0.630648 0.059510 0.208880 
-0.630636 0.105444 0.027916 
-0.630635 0.017417 0.379067 
-0.630629 0.079090 0.140902 
-0.630590 0.085644 0.132366 
-0.630590 0.102125 0.039070 
-0.630588 0.069278 0.167018 
-0.630584 0.066016 0.193842 
-0.630582 0.095516 0.064220 
-0.630569 0.098815 0.030657 
-0.630557 0.023870 0.357007 
-0.630545 0.023870 0.331983 
-0.630540 0.040033 0.301357 
-0.630510 0.105423 0.030705 
-0.630502 0.023868 0.307736 
-0.630497 0.033560 0.304546 
-0.630485 0.105419 0.047503 
-0.630479 0.036793 0.328765 
-0.630477 0.023868 0.314569 
-0.630467 0.020639 0.375289 
-0.630464 0.092203 0.112350 
-0.630464 0.056241 0.242973 
-0.630457 0.036792 0.226742 
-0.630442 0.020639 0.405730 
-0.630431 0.030325 0.290968 
-0.630430 0.098793 0.033442 
-0.630428 0.049745 0.268432 
-0.630424 0.023866 0.379067 
-0.630421 0.092197 0.086708 
-0.630416 0.046502 0.271583 
-0.630381 0.023864 0.321425 
-0.630380 0.049742 0.255481 
-0.630375 0.020636 0.371517 
-0.630372 0.105400 0.033494 
-0.630371 0.092189 0.123834 
-0.630351 0.079056 0.146667 
-0.630344 0.069251 0.163998 
-0.630341 0.062734 0.224318 
-0.630335 0.065990 0.187734 
-0.630326 0.027090 0.300927 
-0.630317 0.036784 0.304546 
-0.630308 0.085606 0.123644 
-0.630299 0.095473 0.067002 
-0.630280 0.098770 0.036226 
-0.630275 0.105384 0.050292 
-0.630268 0.088885 0.097967 
-0.630263 0.082320 0.149667 
-0.630263 0.020633 0.367754 
-0.630262 0.030317 0.342600 
-0.630261 0.023859 0.371517 
-0.630247 0.092171 0.129588 
-0.630233 0.027086 0.353273 
-0.630230 0.102066 0.044643 
-0.630216 0.082314 0.140902 
-0.630186 0.049726 0.258616 
-0.630150 0.023855 0.349547 
-0.630145 0.085584 0.152673 
-0.630130 0.036773 0.325090 
-0.630130 0.040007 0.311371 
-0.630129 0.020628 0.363999 
-0.630089 0.108667 0.027916 
-0.630085 0.098739 0.064220 
-0.630074 0.069222 0.172811 
-0.630062 0.033537 0.307736 
-0.630060 0.105348 0.039070 
-0.630054 0.065961 0.218130 
-0.630053 0.065961 0.215042 
-0.630041 0.092141 0.089487 
-0.630007 0.065956 0.208880 
-0.630004 0.095428 0.069783 
-0.629992 0.023849 0.317769 
-0.629990 0.030304 0.338896 
-0.629976 0.049710 0.261755 
-0.629974 0.023848 0.335202 
-0.629973 0.092131 0.115129 
-0.629961 0.065951 0.205805 
-0.629943 0.049707 0.245732 
-0.629937 0.030301 0.328303 
-0.629915 0.072466 0.175842 
-0.629908 0.014174 0.397542 
-0.629901 0.065945 0.202734 
-0.629884 0.078997 0.134934 
-0.629847 0.075723 0.167018 
-0.629843 0.027069 0.335202 
-0.629830 0.092110 0.126613 
-0.629826 0.065937 0.199668 
-0.629774 0.020617 0.331517 
-0.629761 0.036751 0.321425 
-0.629742 0.059424 0.220892 
-0.629737 0.065928 0.196606 
-0.629735 0.059423 0.211642 
-0.629710 0.078975 0.149438 
-0.629681 0.020614 0.378552 
-0.629677 0.030289 0.297318 
-0.629661 0.023837 0.342122 
-0.629634 0.049683 0.251978 
-0.629633 0.065917 0.193549 
-0.629610 0.033513 0.310928 
-0.629610 0.082235 0.152439 
-0.629605 0.020611 0.352784 
-0.629583 0.023834 0.314123 
-0.629533 0.092067 0.155684 
-0.629514 0.065904 0.190497 
-0.629514 0.033508 0.297318 
-0.629510 0.049673 0.268041 
-0.629494 0.023830 0.374777 
-0.629491 0.023830 0.352784 
-0.629470 0.092058 0.117906 
-0.629463 0.036734 0.229495 
-0.629459 0.092056 0.106455 
-0.629448 0.095344 0.120867 
-0.629399 0.092047 0.123644 
-0.629399 0.020604 0.367251 
-0.629373 0.036728 0.317769 
-0.629361 0.062637 0.227079 
-0.629339 0.108538 0.041857 
-0.629329 0.095326 0.083797 
-0.629327 0.030272 0.307298 
-0.629293 0.078923 0.137703 
-0.629277 0.092030 0.129389 
-0.629254 0.049653 0.271188 
-0.629247 0.098608 0.095188 
-0.629229 0.082185 0.158216 
-0.629228 0.046415 0.274339 
-0.629222 0.039949 0.304111 
-0.629205 0.020598 0.334733 
-0.629153 0.108506 0.044643 
-0.629146 0.072377 0.178607 
-0.629117 0.075635 0.169785 
-0.629102 0.065861 0.220892 
-0.629094 0.065860 0.211642 
-0.629091 0.023815 0.334733 
-0.629073 0.075630 0.157974 
-0.629062 0.065857 0.208566 
-0.629055 0.049637 0.261372 
-0.629041 0.036709 0.331517 
-0.629008 0.027033 0.303677 
-0.628991 0.095275 0.117906 
-0.628976 0.017372 0.381817 
-0.628974 0.023811 0.324174 
-0.628964 0.036705 0.314123 
-0.628961 0.095271 0.086573 
-0.628959 0.088701 0.117723 
-0.628955 0.108472 0.047429 
-0.628888 0.033474 0.327841 
-0.628887 0.075608 0.166764 
-0.628869 0.049622 0.248487 
-0.628861 0.030249 0.303677 
-0.628860 0.101844 0.061340 
-0.628854 0.091968 0.158458 
-0.628824 0.020586 0.378037 
-0.628820 0.098541 0.066897 
-0.628809 0.059336 0.214399 
-0.628777 0.059333 0.223650 
-0.628768 0.039920 0.314123 
-0.628765 0.023803 0.381817 
-0.628763 0.030245 0.345349 
-0.628750 0.017365 0.370502 
-0.628749 0.020583 0.374266 
-0.628726 0.088668 0.143673 
-0.628715 0.033465 0.310486 
-0.628713 0.091947 0.132163 
-0.628708 0.049610 0.251608 
-0.628682 0.065817 0.193257 
-0.628669 0.091940 0.092121 
-0.628667 0.020580 0.408479 
-0.628652 0.023798 0.300066 
-0.628633 0.082107 0.143453 
-0.628620 0.020579 0.337950 
-0.628615 0.101805 0.052914 
-0.628579 0.075571 0.175575 
-0.628539 0.082095 0.160984 
-0.628532 0.049596 0.254732 
-0.628529 0.108398 0.039009 
-0.628525 0.098495 0.069674 
-0.628506 0.023793 0.337950 
-0.628502 0.062551 0.217479 
-0.628500 0.030232 0.331051 
-0.628457 0.036675 0.232244 
-0.628446 0.101777 0.041726 
-0.628444 0.088628 0.120494 
-0.628441 0.023790 0.327379 
-0.628381 0.101767 0.055692 
-0.628376 0.075546 0.172548 
-0.628370 0.101765 0.075341 
-0.628369 0.062538 0.229837 
-0.628366 0.072288 0.181369 
-0.628356 0.108368 0.041792 
-0.628355 0.036669 0.324174 
-0.628338 0.049581 0.270794 
-0.628322 0.020569 0.334263 
-0.628299 0.049577 0.290549 
-0.628274 0.091883 0.152439 
-0.628265 0.091882 0.094893 
-0.628260 0.101747 0.044504 
-0.628258 0.023783 0.310044 
-0.628250 0.033441 0.313677 
-0.628219 0.098447 0.072449 
-0.628209 0.101739 0.027785 
-0.628208 0.023782 0.316869 
-0.628174 0.065764 0.217479 
-0.628170 0.108336 0.044574 
-0.628170 0.065764 0.214399 
-0.628165 0.062518 0.196013 
-0.628151 0.065762 0.211324 
-0.628147 0.023779 0.296465 
-0.628137 0.065760 0.223650 
-0.628136 0.082042 0.181644 
-0.628136 0.091863 0.134934 
-0.628135 0.101727 0.058469 
-0.628134 0.049564 0.260989 
-0.628117 0.065758 0.208253 
-0.628110 0.075514 0.157732 
-0.628100 0.088579 0.146442 
-0.628093 0.078772 0.151972 
-0.628088 0.036653 0.306859 
-0.628083 0.069003 0.187165 
-0.628083 0.101719 0.030561 
-0.628081 0.072255 0.196310 
-0.628074 0.020561 0.388871 
-0.628069 0.065753 0.205187 
-0.628068 0.049559 0.273940 
-0.628063 0.101715 0.047280 
-0.628061 0.020561 0.355529 
-0.628039 0.101711 0.078118 
-0.628024 0.020559 0.381298 
-0.628019 0.098415 0.109230 
-0.627983 0.091840 0.120494 
-0.627982 0.030207 0.310044 
-0.627981 0.082022 0.154971 
-0.627972 0.108302 0.047355 
-0.627962 0.098406 0.103518 
-0.627956 0.043094 0.280241 
-0.627954 0.023772 0.392670 
-0.627947 0.023772 0.355529 
-0.627946 0.023772 0.385081 
-0.627927 0.075492 0.166509 
-0.627918 0.088554 0.123262 
-0.627912 0.049547 0.264123 
-0.627905 0.085280 0.149209 
-0.627901 0.098397 0.075223 
-0.627892 0.039865 0.306859 
-0.627892 0.023770 0.330586 
-0.627854 0.023768 0.377522 
-0.627853 0.101681 0.050056 
-0.627808 0.023766 0.306421 
-0.627800 0.056004 0.257859 
-0.627796 0.101672 0.036112 
-0.627783 0.049537 0.277089 
-0.627782 0.049537 0.251237 
-0.627770 0.033415 0.334263 
-0.627748 0.023764 0.351807 
-0.627680 0.085249 0.131756 
-0.627678 0.026976 0.306421 
-0.627675 0.049528 0.267259 
-0.627662 0.068957 0.202124 
-0.627640 0.043072 0.283395 
-0.627631 0.101645 0.052831 
-0.627629 0.030190 0.341168 
-0.627626 0.023760 0.337476 
-0.627622 0.075456 0.175308 
-0.627607 0.049523 0.254357 
-0.627603 0.095065 0.089209 
-0.627594 0.055985 0.260989 
-0.627591 0.036625 0.334263 
-0.627585 0.068948 0.199067 
-0.627578 0.081969 0.160737 
-0.627571 0.098345 0.077996 
-0.627554 0.023757 0.326918 
-0.627546 0.055981 0.245007 
-0.627543 0.098341 0.112002 
-0.627532 0.081963 0.134518 
-0.627510 0.098336 0.106290 
-0.627494 0.059212 0.238792 
-0.627487 0.098332 0.086439 
-0.627483 0.049513 0.280241 
-0.627479 0.075439 0.190209 
-0.627474 0.030183 0.299635 
-0.627472 0.030183 0.351807 
-0.627461 0.088489 0.149209 
-0.627453 0.033398 0.330586 
-0.627422 0.049508 0.270399 
-0.627422 0.091758 0.100430 
-0.627421 0.075431 0.160491 
-0.627419 0.023752 0.362499 
-0.627417 0.049508 0.257481 
-0.627412 0.072178 0.208253 
-0.627409 0.085212 0.163748 
-0.627398 0.101608 0.055605 
-0.627394 0.039833 0.316869 
-0.627379 0.088478 0.126028 
-0.627372 0.108199 0.041726 
-0.627368 0.081942 0.148979 
-0.627365 0.062438 0.232590 
-0.627356 0.033393 0.313230 
-0.627343 0.017326 0.423308 
-0.627343 0.101598 0.083667 
-0.627338 0.023749 0.302808 
-0.627308 0.062432 0.198766 
-0.627304 0.017325 0.384558 
-0.627301 0.072165 0.202124 
-0.627266 0.068913 0.189921 
-0.627259 0.023746 0.358764 
-0.627252 0.030172 0.348093 
-0.627233 0.065666 0.217153 
-0.627228 0.098292 0.080767 
-0.627228 0.065665 0.214078 
-0.627224 0.072156 0.199067 
-0.627224 0.065665 0.220233 
-0.627215 0.114788 0.041792 
-0.627212 0.095006 0.091978 
-0.627208 0.065663 0.211007 
-0.627199 0.075405 0.169267 
-0.627187 0.108167 0.044504 
-0.627183 0.062420 0.238792 
-0.627177 0.017322 0.403566 
-0.627167 0.049488 0.283395 
-0.627161 0.065658 0.226404 
-0.627154 0.049487 0.273541 
-0.627143 0.085176 0.172548 
-0.627128 0.017320 0.373243 
-0.627109 0.098273 0.089209 
-0.627104 0.104853 0.052831 
-0.627081 0.023739 0.395941 
-0.627078 0.101556 0.047206 
-0.627068 0.055939 0.254357 
-0.627060 0.101553 0.077996 
-0.627057 0.023738 0.380779 
-0.627054 0.098264 0.114773 
-0.627051 0.030162 0.333794 
-0.627029 0.114754 0.044574 
-0.627024 0.078638 0.172285 
-0.627012 0.030160 0.344387 
-0.627011 0.091698 0.120307 
-0.627009 0.036591 0.337476 
-0.627008 0.081895 0.178336 
-0.626992 0.049474 0.263736 
-0.626989 0.108133 0.047280 
-0.626982 0.039807 0.313230 
-0.626943 0.055927 0.280241 
-0.626941 0.108124 0.069674 
-0.626937 0.036586 0.326918 
-0.626926 0.085147 0.169526 
-0.626900 0.023732 0.312784 
-0.626888 0.033368 0.333794 
-0.626884 0.068871 0.214078 
-0.626879 0.020522 0.411219 
-0.626877 0.033368 0.316419 
-0.626876 0.081878 0.163497 
-0.626874 0.098236 0.083536 
-0.626869 0.101522 0.049978 
-0.626862 0.059152 0.226066 
-0.626862 0.104813 0.075223 
-0.626859 0.020521 0.337003 
-0.626829 0.088400 0.128791 
-0.626820 0.023729 0.319609 
-0.626817 0.046237 0.279834 
-0.626809 0.094945 0.094745 
-0.626782 0.101508 0.094893 
-0.626780 0.108097 0.050056 
-0.626779 0.068860 0.204878 
-0.626759 0.033361 0.323258 
-0.626719 0.075347 0.163247 
-0.626718 0.101497 0.080767 
-0.626718 0.081857 0.151739 
-0.626695 0.085115 0.166509 
-0.626674 0.055903 0.260607 
-0.626654 0.023723 0.347608 
-0.626649 0.101486 0.038826 
-0.626649 0.075339 0.192965 
-0.626635 0.108072 0.072449 
-0.626617 0.055898 0.244645 
-0.626591 0.085101 0.154733 
-0.626589 0.033352 0.340691 
-0.626581 0.091635 0.137490 
-0.626575 0.094909 0.114595 
-0.626554 0.023719 0.361999 
-0.626550 0.039779 0.309601 
-0.626539 0.088359 0.114417 
-0.626536 0.108054 0.064019 
-0.626535 0.101468 0.109060 
-0.626532 0.104758 0.077996 
-0.626504 0.020510 0.358268 
-0.626476 0.101458 0.103357 
-0.626475 0.055886 0.247754 
-0.626460 0.075316 0.172022 
-0.626454 0.055884 0.263736 
-0.626451 0.059114 0.241539 
-0.626436 0.068822 0.192672 
-0.626423 0.023714 0.315969 
-0.626419 0.072064 0.204878 
-0.626411 0.023714 0.343907 
-0.626410 0.036556 0.340691 
-0.626400 0.042987 0.286138 
-0.626395 0.094882 0.097510 
-0.626393 0.075308 0.186881 
-0.626382 0.033341 0.319609 
-0.626367 0.101441 0.097662 
-0.626355 0.020505 0.384036 
-0.626350 0.062337 0.235339 
-0.626323 0.059102 0.244645 
-0.626318 0.108017 0.075223 
-0.626317 0.055871 0.250867 
-0.626315 0.020503 0.380260 
-0.626308 0.033337 0.337003 
-0.626285 0.065566 0.219903 
-0.626272 0.078544 0.175040 
-0.626262 0.065564 0.222982 
-0.626259 0.036547 0.351318 
-0.626254 0.108006 0.066793 
-0.626246 0.091586 0.160737 
-0.626240 0.049415 0.273143 
-0.626234 0.094857 0.091834 
-0.626208 0.023706 0.354544 
-0.626208 0.101415 0.091978 
-0.626192 0.023705 0.399213 
-0.626190 0.104701 0.080767 
-0.626181 0.059088 0.247754 
-0.626178 0.065555 0.204569 
-0.626172 0.065554 0.229153 
-0.626169 0.101409 0.058286 
-0.626154 0.010887 0.414504 
-0.626144 0.055856 0.253983 
-0.626141 0.023703 0.376492 
-0.626140 0.062316 0.241539 
-0.626135 0.085039 0.134310 
-0.626081 0.107976 0.058377 
-0.626080 0.101394 0.077874 
-0.626076 0.072024 0.192672 
-0.626059 0.101391 0.111829 
-0.626055 0.081770 0.154495 
-0.626012 0.026905 0.376492 
-0.626009 0.094823 0.123071 
-0.626006 0.091551 0.103035 
-0.625974 0.033319 0.343907 
-0.625968 0.094817 0.100274 
-0.625966 0.085016 0.184127 
-0.625957 0.055839 0.257102 
-0.625949 0.068769 0.216828 
-0.625941 0.101372 0.100430 
-0.625933 0.030109 0.354544 
-0.625928 0.049390 0.286138 
-0.625926 0.065529 0.238437 
-0.625910 0.075250 0.145543 
-0.625901 0.098084 0.097510 
-0.625901 0.075249 0.177793 
-0.625888 0.104650 0.055517 
-0.625885 0.068762 0.207627 
-0.625874 0.059059 0.228811 
-0.625865 0.023693 0.336530 
-0.625837 0.104642 0.083536 
-0.625833 0.023692 0.365235 
-0.625831 0.094797 0.094597 
-0.625827 0.046164 0.289293 
-0.625807 0.091522 0.131552 
-0.625782 0.023690 0.325994 
-0.625775 0.036519 0.358268 
-0.625753 0.055821 0.260224 
-0.625738 0.101339 0.080640 
-0.625728 0.059045 0.234988 
-0.625719 0.055818 0.282985 
-0.625709 0.075226 0.174773 
-0.625688 0.023686 0.361499 
-0.625686 0.033304 0.329655 
-0.625664 0.101327 0.038765 
-0.625661 0.049369 0.279428 
-0.625643 0.104609 0.058286 
-0.625639 0.014078 0.398676 
-0.625621 0.017279 0.391080 
-0.625621 0.017279 0.387293 
-0.625594 0.068729 0.195420 
-0.625593 0.046147 0.282574 
-0.625583 0.071968 0.213757 
-0.625577 0.107889 0.052748 
-0.625535 0.023680 0.343425 
-0.625529 0.094751 0.103035 
-0.625525 0.020478 0.391080 
-0.625508 0.078448 0.177793 
-0.625507 0.036503 0.329655 
-0.625505 0.030088 0.347123 
-0.625501 0.078447 0.154257 
-0.625494 0.017275 0.375977 
-0.625472 0.094742 0.125833 
-0.625471 0.104580 0.086304 
-0.625441 0.081690 0.183847 
-0.625437 0.081690 0.169008 
-0.625436 0.084944 0.175040 
-0.625417 0.094734 0.097358 
-0.625412 0.023676 0.387293 
-0.625410 0.017273 0.406300 
-0.625398 0.020473 0.402484 
-0.625391 0.101283 0.097510 
-0.625390 0.023675 0.383513 
-0.625390 0.036496 0.312338 
-0.625386 0.104566 0.061053 
-0.625383 0.020473 0.339737 
-0.625381 0.081682 0.157249 
-0.625370 0.091458 0.143011 
-0.625349 0.023673 0.398676 
-0.625349 0.049345 0.282574 
-0.625345 0.033286 0.325994 
-0.625326 0.049343 0.272744 
-0.625325 0.065466 0.222649 
-0.625307 0.055781 0.210055 
-0.625301 0.055781 0.266478 
-0.625297 0.088184 0.131348 
-0.625274 0.075173 0.148292 
-0.625229 0.084916 0.160245 
-0.625204 0.081659 0.166000 
-0.625200 0.023668 0.372221 
-0.625186 0.101249 0.058194 
-0.625172 0.065450 0.231898 
-0.625166 0.107818 0.027698 
-0.625149 0.042901 0.288875 
-0.625119 0.039689 0.319155 
-0.625103 0.094686 0.117177 
-0.625100 0.101235 0.077752 
-0.625099 0.058986 0.250496 
-0.625095 0.023664 0.368472 
-0.625092 0.091417 0.108552 
-0.625085 0.062211 0.244283 
-0.625079 0.094683 0.105795 
-0.625071 0.026864 0.372221 
-0.625070 0.101231 0.069347 
-0.625052 0.101228 0.105960 
-0.625046 0.049321 0.275881 
-0.625041 0.107797 0.030465 
-0.625039 0.023662 0.318701 
-0.625027 0.017262 0.417788 
-0.625020 0.101222 0.086169 
-0.625015 0.091406 0.140036 
-0.624991 0.094669 0.100117 
-0.624988 0.101217 0.033180 
-0.624978 0.068662 0.210372 
-0.624972 0.039679 0.325994 
-0.624970 0.023659 0.364732 
-0.624966 0.101214 0.100274 
-0.624955 0.084879 0.157249 
-0.624930 0.101208 0.060957 
-0.624923 0.094659 0.128592 
-0.624920 0.036469 0.343425 
-0.624885 0.065420 0.241181 
-0.624874 0.058965 0.231552 
-0.624851 0.084865 0.180817 
-0.624843 0.107762 0.061053 
-0.624839 0.101193 0.035943 
-0.624837 0.104474 0.066584 
-0.624815 0.107758 0.049899 
-0.624794 0.023652 0.445979 
-0.624759 0.101180 0.080514 
-0.624756 0.107747 0.035999 
-0.624750 0.049298 0.279021 
-0.624746 0.091367 0.145768 
-0.624723 0.088103 0.134102 
-0.624723 0.036457 0.354052 
-0.624721 0.039663 0.315518 
-0.624713 0.071867 0.183287 
-0.624703 0.017254 0.379223 
-0.624677 0.049292 0.288875 
-0.624674 0.049292 0.269215 
-0.624673 0.084841 0.177793 
-0.624659 0.020449 0.394340 
-0.624651 0.020449 0.382991 
-0.624650 0.071860 0.216502 
-0.624649 0.049290 0.256344 
-0.624647 0.091352 0.137066 
-0.624643 0.101161 0.088931 
-0.624639 0.081586 0.186597 
-0.624625 0.075095 0.151038 
-0.624619 0.071857 0.210372 
-0.624619 0.020448 0.398138 
-0.624618 0.091348 0.111308 
-0.624617 0.055720 0.262963 
-0.624617 0.094613 0.108552 
-0.624610 0.097881 0.117177 
-0.624607 0.111013 0.027698 
-0.624595 0.107720 0.038765 
-0.624591 0.094609 0.119934 
-0.624579 0.091342 0.105630 
-0.624575 0.107716 0.063819 
-0.624562 0.046071 0.292029 
