# .PCD v.7 - Point Cloud Data file format
VERSION .7
FIELDS x y z
SIZE 4 4 4
TYPE F F F
COUNT 1 1 1
WIDTH 1594
HEIGHT 1
POINTS 1594
DATA ascii
-0.494061 0.239887 0.186434 
-0.493989 0.291981 0.351641 
-0.493945 0.323507 0.560319 
-0.493943 0.275163 0.291207 
-0.493936 0.305750 0.433784 
-0.493905 0.218329 0.172858 
-0.493895 0.281793 0.271222 
-0.493892 0.291923 0.383343 
-0.493888 0.302238 0.424559 
-0.493875 0.291913 0.386961 
-0.493869 0.268542 0.244433 
-0.493865 0.271821 0.227760 
-0.493865 0.281776 0.308721 
-0.493861 0.265274 0.174069 
-0.493860 0.221335 0.155183 
-0.493819 0.230477 0.177066 
-0.493801 0.271785 0.230597 
-0.493778 0.295273 0.373622 
-0.493763 0.316221 0.527943 
-0.493761 0.316219 0.551571 
-0.493754 0.305638 0.461905 
-0.493742 0.288438 0.364289 
-0.493734 0.275047 0.172791 
-0.493729 0.295244 0.370026 
-0.493725 0.302138 0.412879 
-0.493676 0.302109 0.456271 
-0.493675 0.302108 0.428272 
-0.493660 0.291786 0.344560 
-0.493651 0.221241 0.173162 
-0.493645 0.258689 0.181083 
-0.493644 0.281650 0.274135 
-0.493635 0.271694 0.236280 
-0.493620 0.268406 0.227011 
-0.493590 0.316110 0.537093 
-0.493568 0.302042 0.416569 
-0.493553 0.242767 0.184036 
-0.493509 0.278238 0.273266 
-0.493487 0.265073 0.182010 
-0.493481 0.221165 0.160184 
-0.493472 0.230315 0.171702 
-0.493471 0.288280 0.340009 
-0.493446 0.224186 0.163119 
-0.493420 0.271575 0.241978 
-0.493417 0.242700 0.181321 
-0.493397 0.268285 0.235507 
-0.493395 0.291630 0.354668 
-0.493393 0.301935 0.420266 
-0.493357 0.298457 0.422785 
-0.493308 0.218065 0.164897 
-0.493306 0.298426 0.407464 
-0.493302 0.308858 0.484054 
-0.493293 0.271506 0.244831 
-0.493238 0.221056 0.157543 
-0.493200 0.301817 0.423968 
-0.493187 0.264912 0.176514 
-0.493160 0.322993 0.574280 
-0.493153 0.271429 0.207670 
-0.493143 0.305259 0.453126 
-0.493134 0.239436 0.159782 
-0.493126 0.308747 0.479602 
-0.493119 0.281350 0.301870 
-0.493115 0.291464 0.371988 
-0.493092 0.294863 0.376677 
-0.493082 0.239411 0.183402 
-0.493076 0.281326 0.295519 
-0.493066 0.258385 0.186257 
-0.493039 0.274660 0.266178 
-0.493022 0.305184 0.425151 
-0.493019 0.251968 0.182574 
-0.493007 0.301699 0.447530 
-0.492990 0.271339 0.230218 
-0.492957 0.220930 0.175521 
-0.492940 0.258319 0.183513 
-0.492926 0.308622 0.475161 
-0.492925 0.287961 0.343015 
-0.492922 0.291350 0.344045 
-0.492915 0.271297 0.233054 
-0.492896 0.291335 0.361256 
-0.492880 0.312113 0.507132 
-0.492876 0.301619 0.415985 
-0.492850 0.261493 0.175912 
-0.492845 0.217861 0.169898 
-0.492840 0.271256 0.253413 
-0.492828 0.242410 0.186434 
-0.492827 0.271249 0.235893 
-0.492792 0.239270 0.177993 
-0.492785 0.258238 0.167441 
-0.492783 0.264695 0.184453 
-0.492746 0.312028 0.498126 
-0.492745 0.267930 0.229461 
-0.492735 0.281131 0.304817 
-0.492729 0.305003 0.440653 
-0.492727 0.271194 0.238736 
-0.492663 0.271159 0.256280 
-0.492663 0.291197 0.354141 
-0.492663 0.214775 0.164312 
-0.492645 0.217772 0.167249 
-0.492601 0.281054 0.276612 
-0.492557 0.315448 0.522050 
-0.492548 0.319006 0.556878 
-0.492521 0.291113 0.337005 
-0.492517 0.311883 0.489160 
-0.492506 0.264546 0.200722 
-0.492502 0.239129 0.162172 
-0.492490 0.271064 0.244433 
-0.492474 0.239116 0.188503 
-0.492452 0.261282 0.183827 
-0.492433 0.291061 0.375032 
-0.492366 0.270995 0.212928 
-0.492365 0.270995 0.215737 
-0.492361 0.291019 0.347059 
-0.492354 0.270989 0.210124 
-0.492342 0.258006 0.188684 
-0.492336 0.291004 0.367862 
-0.492322 0.304751 0.436315 
-0.492306 0.280886 0.295057 
-0.492305 0.251603 0.184988 
-0.492285 0.287587 0.332490 
-0.492282 0.297807 0.388079 
-0.492266 0.280863 0.314156 
-0.492262 0.297794 0.373622 
-0.492260 0.336988 0.591371 
-0.492243 0.297783 0.391711 
-0.492241 0.270926 0.227011 
-0.492226 0.257945 0.185940 
-0.492184 0.301195 0.415401 
-0.492182 0.322353 0.539120 
-0.492167 0.261131 0.178345 
-0.492163 0.217559 0.172248 
-0.492134 0.257897 0.169867 
-0.492118 0.270859 0.196165 
-0.492105 0.270852 0.232671 
-0.492094 0.242048 0.188829 
-0.492089 0.238929 0.180382 
-0.492075 0.287464 0.356105 
-0.492069 0.264312 0.186892 
-0.492059 0.290840 0.357165 
-0.492052 0.322268 0.543718 
-0.492034 0.270813 0.193387 
-0.492013 0.301091 0.419090 
-0.492009 0.301088 0.450663 
-0.491990 0.290799 0.340009 
-0.491987 0.287413 0.338987 
-0.491985 0.301074 0.400137 
-0.491979 0.241992 0.186113 
-0.491974 0.217475 0.159332 
-0.491973 0.301067 0.458792 
-0.491957 0.280687 0.252176 
-0.491943 0.287387 0.352563 
-0.491929 0.280671 0.310718 
-0.491920 0.270750 0.238345 
-0.491895 0.322165 0.562890 
-0.491892 0.304485 0.431989 
-0.491888 0.301015 0.403797 
-0.491876 0.274012 0.259568 
-0.491875 0.280641 0.291665 
-0.491861 0.238818 0.164560 
-0.491852 0.241929 0.183402 
-0.491811 0.264173 0.181392 
-0.491810 0.270689 0.241188 
-0.491799 0.264167 0.208723 
-0.491794 0.307914 0.465686 
-0.491782 0.257712 0.196612 
-0.491774 0.300945 0.407464 
-0.491764 0.304406 0.443786 
-0.491757 0.248161 0.181635 
-0.491751 0.267390 0.192736 
-0.491739 0.260903 0.186257 
-0.491729 0.314918 0.554124 
-0.491726 0.280556 0.173084 
-0.491707 0.280545 0.240299 
-0.491701 0.257670 0.193857 
-0.491679 0.270617 0.258731 
-0.491654 0.267337 0.189970 
-0.491642 0.300864 0.411137 
-0.491628 0.287203 0.345502 
-0.491625 0.290583 0.346540 
-0.491612 0.264066 0.197613 
-0.491591 0.300833 0.462556 
-0.491590 0.280478 0.243162 
-0.491575 0.280469 0.307290 
-0.491548 0.280454 0.279084 
-0.491536 0.270538 0.218187 
-0.491535 0.290530 0.363751 
-0.491517 0.321918 0.557566 
-0.491516 0.318337 0.527274 
-0.491508 0.307734 0.486589 
-0.491506 0.238646 0.185470 
-0.491491 0.293905 0.364826 
-0.491476 0.270506 0.223816 
-0.491472 0.270504 0.204185 
-0.491472 0.257550 0.172290 
-0.491457 0.304216 0.455652 
-0.491446 0.290478 0.343015 
-0.491445 0.287096 0.341985 
-0.491440 0.290474 0.360189 
-0.491440 0.304205 0.427677 
-0.491414 0.260731 0.202475 
-0.491400 0.293851 0.361256 
-0.491385 0.307657 0.469472 
-0.491376 0.238583 0.182767 
-0.491363 0.270443 0.198615 
-0.491353 0.311146 0.492345 
-0.491350 0.241682 0.191220 
-0.491346 0.263923 0.189327 
-0.491317 0.314654 0.516180 
-0.491290 0.260665 0.196946 
-0.491284 0.300645 0.441960 
-0.491258 0.257438 0.182887 
-0.491250 0.290362 0.339498 
-0.491245 0.241631 0.188503 
-0.491211 0.260623 0.194187 
-0.491208 0.280260 0.263713 
-0.491193 0.286949 0.318581 
-0.491183 0.280246 0.297527 
-0.491150 0.276908 0.248091 
-0.491133 0.307500 0.465060 
-0.491129 0.241574 0.185791 
-0.491113 0.283544 0.173376 
-0.491111 0.321651 0.552256 
-0.491109 0.263796 0.183827 
-0.491090 0.303988 0.443177 
-0.491053 0.290245 0.349551 
-0.491045 0.247801 0.184036 
-0.491023 0.286850 0.325021 
-0.491016 0.260520 0.188684 
-0.491005 0.270246 0.240793 
-0.491001 0.241511 0.183084 
-0.490999 0.276822 0.250956 
-0.490997 0.280139 0.254645 
-0.490973 0.263723 0.181083 
-0.490947 0.300439 0.410556 
-0.490911 0.321520 0.556878 
-0.490882 0.273458 0.262023 
-0.490881 0.296959 0.383343 
-0.490880 0.296958 0.379732 
-0.490864 0.257232 0.193528 
-0.490862 0.296947 0.376128 
-0.490840 0.276733 0.265752 
-0.490809 0.290101 0.363214 
-0.490785 0.303800 0.446918 
-0.490773 0.296894 0.368944 
-0.490728 0.286678 0.358588 
-0.490713 0.270086 0.209424 
-0.490697 0.270077 0.220633 
-0.490676 0.314244 0.510992 
-0.490674 0.321366 0.546961 
-0.490664 0.279949 0.245629 
-0.490599 0.270023 0.201060 
-0.490598 0.289977 0.356105 
-0.490585 0.289968 0.312642 
-0.490557 0.270000 0.229082 
-0.490538 0.247545 0.191879 
-0.490528 0.300182 0.465696 
-0.490526 0.260260 0.199370 
-0.490515 0.279865 0.272397 
-0.490511 0.289925 0.338987 
-0.490488 0.307096 0.440048 
-0.490486 0.269961 0.231906 
-0.490485 0.279848 0.281550 
-0.490456 0.266686 0.217100 
-0.490437 0.321210 0.566145 
-0.490405 0.266658 0.222705 
-0.490403 0.269915 0.234733 
-0.490398 0.263414 0.186257 
-0.490397 0.241214 0.188178 
-0.490381 0.300092 0.406309 
-0.490331 0.279759 0.290749 
-0.490324 0.247437 0.186434 
-0.490322 0.286440 0.347983 
-0.490320 0.266612 0.200384 
-0.490319 0.289811 0.349028 
-0.490313 0.263369 0.170160 
-0.490296 0.289798 0.335482 
-0.490285 0.303490 0.434509 
-0.490284 0.260132 0.191108 
-0.490280 0.269847 0.189970 
-0.490279 0.241156 0.185470 
-0.490273 0.263347 0.183513 
-0.490210 0.279691 0.236667 
-0.490202 0.317486 0.530496 
-0.490198 0.247374 0.183719 
-0.490195 0.306912 0.460037 
-0.490189 0.279679 0.284462 
-0.490179 0.266535 0.194847 
-0.490159 0.289716 0.315611 
-0.490153 0.289713 0.345502 
-0.490134 0.282979 0.307290 
-0.490126 0.335527 0.593968 
-0.490112 0.256837 0.195944 
-0.490082 0.320977 0.560816 
-0.490063 0.320965 0.546279 
-0.490040 0.276282 0.253413 
-0.490027 0.279586 0.257109 
-0.490018 0.263210 0.199708 
-0.490003 0.324518 0.577548 
-0.489990 0.279565 0.278199 
-0.489988 0.286245 0.321060 
-0.489984 0.289614 0.359122 
-0.489975 0.279556 0.269069 
-0.489955 0.299831 0.394784 
-0.489951 0.263174 0.196946 
-0.489947 0.313777 0.501318 
-0.489908 0.269643 0.211866 
-0.489895 0.306725 0.455652 
-0.489892 0.320853 0.550886 
-0.489882 0.269628 0.220267 
-0.489826 0.269597 0.203501 
-0.489810 0.320800 0.531841 
-0.489800 0.266329 0.170452 
-0.489794 0.286132 0.327500 
-0.489792 0.299732 0.402076 
-0.489790 0.286129 0.311199 
-0.489744 0.253461 0.195276 
-0.489735 0.289466 0.352036 
-0.489708 0.292839 0.353089 
-0.489708 0.279404 0.281104 
-0.489697 0.320725 0.555501 
-0.489695 0.247120 0.191550 
-0.489655 0.240849 0.190561 
-0.489654 0.263015 0.172587 
-0.489636 0.269493 0.195176 
-0.489634 0.279362 0.262868 
-0.489619 0.266231 0.219534 
-0.489595 0.320658 0.541003 
-0.489593 0.247068 0.188829 
-0.489582 0.216418 0.161101 
-0.489563 0.262965 0.185940 
-0.489550 0.269445 0.192410 
-0.489548 0.240797 0.187852 
-0.489547 0.266191 0.202817 
-0.489526 0.282628 0.284912 
-0.489478 0.247010 0.186113 
-0.489478 0.279273 0.274858 
-0.489478 0.320582 0.560124 
-0.489427 0.266126 0.197279 
-0.489419 0.279239 0.265752 
-0.489416 0.313436 0.518721 
-0.489409 0.306420 0.467584 
-0.489389 0.302936 0.425892 
-0.489379 0.282543 0.300461 
-0.489371 0.313408 0.505164 
-0.489356 0.216318 0.168695 
-0.489345 0.302908 0.437627 
-0.489305 0.320469 0.522050 
-0.489301 0.285844 0.330475 
-0.489283 0.320454 0.550201 
-0.489260 0.320439 0.526605 
-0.489252 0.299401 0.394218 
-0.489215 0.272530 0.249329 
-0.489189 0.262765 0.199370 
-0.489182 0.299358 0.397857 
-0.489148 0.262743 0.177735 
-0.489142 0.265971 0.172883 
-0.489106 0.279061 0.286922 
-0.489098 0.320333 0.535742 
-0.489095 0.256304 0.190131 
-0.489094 0.269194 0.214304 
-0.489091 0.302751 0.417914 
-0.489072 0.275736 0.255865 
-0.489057 0.272441 0.252181 
-0.489052 0.249941 0.186434 
-0.489048 0.279027 0.259568 
-0.489043 0.269167 0.205939 
-0.489035 0.269162 0.222705 
-0.489016 0.275704 0.241188 
-0.489002 0.282326 0.303397 
-0.488989 0.275689 0.171622 
-0.488987 0.256248 0.187399 
-0.488986 0.262656 0.175010 
-0.488968 0.289013 0.318092 
-0.488950 0.269115 0.200384 
-0.488947 0.262635 0.191108 
-0.488934 0.216132 0.163435 
-0.488933 0.278962 0.247689 
-0.488911 0.243595 0.182767 
-0.488908 0.302637 0.421603 
-0.488886 0.275631 0.258731 
-0.488886 0.272346 0.255036 
-0.488886 0.269080 0.197613 
-0.488873 0.320186 0.559433 
-0.488857 0.306074 0.442569 
-0.488851 0.288944 0.347983 
-0.488843 0.262579 0.188363 
-0.488823 0.265798 0.213587 
-0.488819 0.252983 0.192209 
-0.488802 0.288915 0.324525 
-0.488794 0.313038 0.513529 
-0.488783 0.265776 0.180774 
-0.488749 0.246642 0.188503 
-0.488736 0.313001 0.504508 
-0.488681 0.288843 0.344465 
-0.488638 0.278794 0.283562 
-0.488632 0.320028 0.564061 
-0.488632 0.299022 0.386402 
-0.488613 0.285442 0.313671 
-0.488599 0.299002 0.390023 
-0.488567 0.302426 0.413648 
-0.488481 0.298929 0.397287 
-0.488475 0.265608 0.175311 
-0.488445 0.282004 0.287376 
-0.488418 0.262351 0.201791 
-0.488407 0.278662 0.268208 
-0.488403 0.302325 0.417327 
-0.488386 0.268805 0.183827 
-0.488381 0.292046 0.355575 
-0.488366 0.319854 0.568698 
-0.488336 0.316278 0.501318 
-0.488324 0.288632 0.327500 
-0.488323 0.249568 0.188829 
-0.488278 0.215841 0.165766 
-0.488274 0.278586 0.244433 
-0.488270 0.268741 0.216737 
-0.488258 0.255866 0.189806 
-0.488254 0.316225 0.533039 
-0.488252 0.268731 0.219534 
-0.488252 0.268731 0.208373 
-0.488227 0.319763 0.544233 
-0.488208 0.262238 0.193528 
-0.488192 0.243237 0.185149 
-0.488179 0.268691 0.202817 
-0.488179 0.268691 0.225138 
-0.488157 0.334180 0.586443 
-0.488144 0.312622 0.508354 
-0.488115 0.262188 0.190782 
-0.488094 0.275185 0.243635 
-0.488085 0.265397 0.183200 
-0.488071 0.288482 0.333960 
-0.488051 0.285114 0.332945 
-0.487994 0.265347 0.210448 
-0.487982 0.268583 0.194517 
-0.487974 0.265336 0.207672 
-0.487952 0.319583 0.529824 
-0.487949 0.323158 0.541003 
-0.487898 0.275074 0.261178 
-0.487893 0.271793 0.242838 
-0.487876 0.319533 0.553436 
-0.487875 0.275061 0.223446 
-0.487847 0.278343 0.264899 
-0.487798 0.265240 0.177735 
-0.487777 0.281618 0.277757 
-0.487769 0.288304 0.320567 
-0.487762 0.271720 0.245675 
-0.487696 0.298449 0.400355 
-0.487679 0.268415 0.186257 
-0.487665 0.319394 0.558050 
-0.487638 0.261932 0.204208 
-0.487617 0.274916 0.234733 
-0.487615 0.319362 0.543551 
-0.487594 0.268369 0.170160 
-0.487579 0.288192 0.327000 
-0.487565 0.288184 0.310718 
-0.487550 0.284821 0.326000 
-0.487530 0.315756 0.536930 
-0.487470 0.278127 0.258731 
-0.487464 0.242875 0.187527 
-0.487460 0.261836 0.195944 
-0.487458 0.268294 0.213587 
-0.487451 0.301736 0.405155 
-0.487450 0.268290 0.210803 
-0.487436 0.268282 0.219167 
-0.487418 0.268272 0.180774 
-0.487408 0.268266 0.221963 
-0.487395 0.312142 0.498707 
-0.487395 0.319218 0.524597 
-0.487386 0.278079 0.270659 
-0.487378 0.265012 0.185623 
-0.487354 0.281374 0.289834 
-0.487343 0.278055 0.246883 
-0.487328 0.301660 0.408814 
-0.487314 0.268215 0.227567 
-0.487275 0.258535 0.179229 
-0.487272 0.278015 0.261600 
-0.487241 0.337224 0.592554 
-0.487234 0.268171 0.196946 
-0.487230 0.322681 0.559433 
-0.487222 0.298159 0.378076 
-0.487215 0.305047 0.445081 
-0.487186 0.255304 0.184036 
-0.487165 0.294711 0.345502 
-0.487163 0.284595 0.306335 
-0.487147 0.287936 0.313671 
-0.487143 0.298111 0.392519 
-0.487138 0.319049 0.538288 
-0.487129 0.315496 0.504508 
-0.487116 0.264870 0.204555 
-0.487099 0.274624 0.220267 
-0.487089 0.287903 0.329971 
-0.486943 0.261558 0.168990 
-0.486933 0.304870 0.428998 
-0.486900 0.304849 0.448816 
-0.486848 0.267958 0.185940 
-0.486845 0.318858 0.547460 
-0.486812 0.245665 0.182450 
-0.486809 0.318834 0.519386 
-0.486801 0.251938 0.183402 
-0.486756 0.267908 0.169867 
-0.486723 0.281010 0.280212 
-0.486714 0.318772 0.528479 
-0.486670 0.304705 0.421012 
-0.486637 0.267842 0.216013 
-0.486631 0.267839 0.210448 
-0.486631 0.318717 0.533039 
-0.486610 0.267828 0.207672 
-0.486578 0.267809 0.204901 
-0.486568 0.318676 0.566604 
-0.486560 0.287590 0.323036 
-0.486558 0.315126 0.512867 
-0.486555 0.267797 0.224389 
-0.486554 0.315124 0.517389 
-0.486523 0.318647 0.537609 
-0.486509 0.271022 0.236392 
-0.486476 0.267754 0.199370 
-0.486403 0.277518 0.249329 
-0.486399 0.332976 0.584331 
-0.486394 0.287491 0.313187 
-0.486392 0.318561 0.542187 
-0.486379 0.297643 0.366780 
-0.486373 0.294232 0.362139 
-0.486355 0.277491 0.273105 
-0.486346 0.287463 0.329468 
-0.486324 0.245419 0.190231 
-0.486254 0.280739 0.292286 
-0.486194 0.318431 0.514192 
-0.486173 0.314877 0.540141 
-0.486164 0.300939 0.400355 
-0.486158 0.274093 0.228325 
-0.486156 0.294100 0.355045 
-0.486152 0.318403 0.523259 
-0.486132 0.267564 0.188363 
-0.486107 0.307824 0.470099 
-0.486097 0.245304 0.184827 
-0.486095 0.318366 0.527807 
-0.486088 0.287310 0.326000 
-0.486086 0.251568 0.185791 
-0.486022 0.294019 0.351510 
-0.486022 0.270751 0.205247 
-0.486014 0.318313 0.532364 
-0.485989 0.270732 0.224763 
-0.485976 0.321851 0.543551 
-0.485964 0.287237 0.316137 
-0.485936 0.270703 0.227567 
-0.485900 0.311185 0.488469 
-0.485888 0.287192 0.175256 
-0.485871 0.270667 0.230375 
-0.485871 0.307674 0.478299 
-0.485870 0.293928 0.347983 
-0.485845 0.287167 0.332437 
-0.485822 0.267394 0.212870 
-0.485813 0.287148 0.322540 
-0.485810 0.297295 0.380565 
-0.485794 0.270624 0.233186 
-0.485790 0.304154 0.424108 
-0.485771 0.297271 0.373387 
-0.485756 0.267357 0.204555 
-0.485714 0.277126 0.211866 
-0.485713 0.311065 0.458792 
-0.485710 0.267332 0.201791 
-0.485708 0.280424 0.273543 
-0.485704 0.287084 0.299992 
-0.485701 0.283741 0.174662 
-0.485649 0.307534 0.445081 
-0.485632 0.254489 0.186113 
-0.485623 0.318057 0.560588 
-0.485603 0.270518 0.238819 
-0.485582 0.267262 0.196278 
-0.485582 0.297155 0.362677 
-0.485543 0.286989 0.338894 
-0.485535 0.286984 0.287376 
-0.485530 0.317996 0.522590 
-0.485506 0.254424 0.183402 
-0.485501 0.267217 0.193528 
-0.485485 0.276995 0.231523 
-0.485453 0.276977 0.251770 
-0.485408 0.267166 0.190782 
-0.485406 0.273669 0.225138 
-0.485372 0.244938 0.187201 
-0.485368 0.300447 0.403424 
-0.485361 0.251193 0.188178 
-0.485342 0.303874 0.431501 
-0.485342 0.286870 0.325500 
-0.485303 0.286847 0.296596 
-0.485301 0.286846 0.309275 
-0.485295 0.317842 0.536251 
-0.485286 0.273601 0.230758 
-0.485277 0.314296 0.507036 
-0.485270 0.283489 0.301978 
-0.485251 0.300374 0.407072 
-0.485236 0.303807 0.451319 
-0.485235 0.283469 0.295665 
-0.485235 0.270312 0.207672 
-0.485213 0.286793 0.315649 
-0.485186 0.267044 0.185305 
-0.485145 0.280099 0.294733 
-0.485110 0.310679 0.483375 
-0.485081 0.266985 0.169283 
-0.485066 0.286706 0.174959 
-0.485011 0.254164 0.191220 
-0.485010 0.296805 0.369265 
-0.485005 0.273443 0.172883 
-0.484974 0.244738 0.179129 
-0.484958 0.276694 0.245675 
-0.484953 0.260489 0.176211 
-0.484945 0.286635 0.305858 
-0.484908 0.254110 0.188503 
-0.484880 0.276650 0.219900 
-0.484826 0.293296 0.357521 
-0.484821 0.321086 0.556667 
-0.484805 0.289907 0.339409 
-0.484801 0.313989 0.543349 
-0.484793 0.254050 0.185791 
-0.484783 0.293270 0.340440 
-0.484772 0.286533 0.318597 
-0.484758 0.270047 0.188363 
-0.484741 0.310442 0.491631 
-0.484679 0.310403 0.461931 
-0.484661 0.276525 0.251359 
-0.484594 0.286428 0.280658 
-0.484573 0.286415 0.302451 
-0.484494 0.276429 0.254207 
-0.484473 0.266651 0.187720 
-0.484457 0.306779 0.432102 
-0.484451 0.286343 0.289834 
-0.484448 0.269874 0.212870 
-0.484440 0.289689 0.345893 
-0.484438 0.269869 0.210094 
-0.484391 0.296427 0.379454 
-0.484370 0.306724 0.472605 
-0.484344 0.296398 0.372290 
-0.484318 0.286264 0.321548 
-0.484314 0.317200 0.512204 
-0.484312 0.317199 0.516723 
-0.484292 0.317186 0.507695 
-0.484272 0.244383 0.181498 
-0.484263 0.289583 0.342390 
-0.484227 0.296326 0.365157 
-0.484226 0.266515 0.182261 
-0.484225 0.303175 0.454435 
-0.484219 0.282875 0.282661 
-0.484189 0.286188 0.305381 
-0.484178 0.317111 0.498707 
-0.484164 0.317101 0.530337 
-0.484149 0.303127 0.438307 
-0.484122 0.286148 0.292748 
-0.484116 0.282815 0.298114 
-0.484096 0.276202 0.213945 
-0.484088 0.310024 0.453176 
-0.484072 0.276189 0.208373 
-0.484070 0.253671 0.188178 
-0.484046 0.282774 0.291825 
-0.484035 0.269644 0.190782 
-0.484022 0.276160 0.248109 
-0.484004 0.306492 0.447585 
-0.483994 0.320539 0.546090 
-0.483972 0.309950 0.486530 
-0.483872 0.272804 0.216013 
-0.483864 0.302949 0.442020 
-0.483843 0.292702 0.336430 
-0.483817 0.320421 0.550682 
-0.483815 0.285967 0.301978 
-0.483738 0.320369 0.565209 
-0.483704 0.275979 0.253792 
-0.483682 0.295992 0.382487 
-0.483664 0.295981 0.386083 
-0.483663 0.316774 0.507036 
-0.483644 0.266195 0.187399 
-0.483632 0.269420 0.215288 
-0.483620 0.285852 0.330914 
-0.483620 0.269413 0.218068 
-0.483615 0.316742 0.502540 
-0.483592 0.266166 0.171400 
-0.483579 0.295930 0.368175 
-0.483561 0.302758 0.445738 
-0.483561 0.244024 0.183863 
-0.483550 0.299321 0.387209 
-0.483544 0.316695 0.498055 
-0.483535 0.285802 0.283111 
-0.483526 0.275877 0.256638 
-0.483516 0.269355 0.201449 
-0.483510 0.295887 0.364616 
-0.483469 0.330971 0.580811 
-0.483432 0.285741 0.304904 
-0.483424 0.295834 0.361065 
-0.483420 0.275817 0.170160 
-0.483376 0.341913 0.597264 
-0.483326 0.282353 0.310278 
-0.483306 0.292376 0.319582 
-0.483303 0.269236 0.193198 
-0.483281 0.275737 0.216375 
-0.483233 0.282299 0.275988 
-0.483227 0.282295 0.173773 
-0.483212 0.320021 0.549994 
-0.483150 0.282250 0.285106 
-0.483056 0.285519 0.301504 
-0.483053 0.285517 0.279766 
-0.483037 0.285507 0.307832 
-0.483034 0.316362 0.506376 
-0.482986 0.269060 0.184988 
-0.482977 0.309313 0.464437 
-0.482977 0.282149 0.306870 
-0.482966 0.305835 0.458801 
-0.482961 0.282140 0.278873 
-0.482954 0.295547 0.374765 
-0.482932 0.265803 0.173807 
-0.482924 0.259399 0.170214 
-0.482918 0.295525 0.371194 
-0.482906 0.282108 0.313206 
-0.482859 0.305767 0.434600 
-0.482809 0.298862 0.390253 
-0.482795 0.309196 0.472605 
-0.482791 0.319742 0.559199 
-0.482784 0.268947 0.220481 
-0.482754 0.298828 0.393867 
-0.482711 0.272150 0.235220 
-0.482641 0.291974 0.328964 
-0.482593 0.305599 0.438307 
-0.482571 0.309053 0.468201 
-0.482562 0.268824 0.195610 
-0.482555 0.285222 0.276430 
-0.482509 0.312504 0.490982 
-0.482473 0.281855 0.316135 
-0.482467 0.285170 0.285560 
-0.482456 0.275267 0.218801 
-0.482440 0.315972 0.514725 
-0.482434 0.315969 0.510216 
-0.482430 0.308963 0.447585 
-0.482392 0.302027 0.432784 
-0.482372 0.285114 0.333363 
-0.482349 0.305444 0.450080 
-0.482349 0.308911 0.476381 
-0.482339 0.275200 0.227189 
-0.482323 0.308894 0.463808 
-0.482265 0.259045 0.172605 
-0.482243 0.295112 0.374213 
-0.482189 0.281689 0.278427 
-0.482183 0.278388 0.172883 
-0.482179 0.308802 0.489033 
-0.482071 0.281620 0.287544 
-0.482056 0.281611 0.260332 
-0.482039 0.319244 0.520582 
-0.482027 0.281595 0.319067 
-0.481998 0.284893 0.282211 
-0.481926 0.305177 0.461920 
-0.481919 0.284847 0.303950 
-0.481919 0.265245 0.170807 
-0.481918 0.308635 0.467568 
-0.481907 0.315623 0.483375 
-0.481906 0.281524 0.281311 
-0.481904 0.288173 0.327452 
-0.481876 0.284821 0.310278 
-0.481852 0.281492 0.302995 
-0.481812 0.268406 0.198019 
-0.481775 0.284761 0.316628 
-0.481752 0.294812 0.352926 
-0.481749 0.301624 0.401692 
-0.481737 0.315512 0.478939 
-0.481730 0.265141 0.181321 
-0.481729 0.265141 0.168113 
-0.481721 0.315502 0.500572 
-0.481639 0.301555 0.405330 
-0.481622 0.274791 0.221222 
-0.481611 0.281351 0.284198 
-0.481585 0.265062 0.178611 
-0.481555 0.294691 0.377232 
-0.481541 0.315383 0.491631 
-0.481504 0.277996 0.265194 
-0.481457 0.284574 0.313206 
-0.481442 0.308330 0.450699 
-0.481415 0.315301 0.487176 
-0.481413 0.287879 0.330407 
-0.481409 0.291229 0.331422 
-0.481390 0.284534 0.260755 
-0.481390 0.284534 0.288002 
-0.481375 0.318804 0.524445 
-0.481347 0.304809 0.453190 
-0.481277 0.277865 0.268052 
-0.481261 0.264883 0.173206 
-0.481192 0.315155 0.513393 
-0.481181 0.315148 0.508891 
-0.481164 0.281090 0.271790 
-0.481163 0.284399 0.303472 
-0.481156 0.294447 0.355920 
-0.481148 0.315126 0.504398 
-0.481147 0.301247 0.397488 
-0.481125 0.329366 0.577995 
-0.481112 0.274499 0.171993 
-0.481082 0.264785 0.170511 
-0.481071 0.281036 0.262766 
-0.481032 0.264757 0.183719 
-0.481009 0.315035 0.495443 
-0.481003 0.271187 0.190131 
-0.480983 0.280985 0.289978 
-0.480967 0.284284 0.266486 
-0.480933 0.284264 0.284652 
-0.480908 0.287577 0.333363 
-0.480904 0.314967 0.490982 
-0.480886 0.294281 0.348879 
-0.480855 0.280910 0.265625 
-0.480852 0.274352 0.212512 
-0.480823 0.301045 0.408390 
-0.480815 0.274330 0.220852 
-0.480779 0.274310 0.223640 
-0.480777 0.314883 0.486530 
-0.480752 0.297589 0.381369 
-0.480748 0.297587 0.377787 
-0.480741 0.307881 0.442020 
-0.480739 0.307880 0.458175 
-0.480732 0.284145 0.293802 
-0.480707 0.297561 0.388554 
-0.480706 0.284130 0.312717 
-0.480681 0.314820 0.469466 
-0.480680 0.300955 0.412037 
-0.480658 0.297531 0.392157 
-0.480628 0.280777 0.268487 
-0.480625 0.314784 0.482090 
-0.480595 0.264516 0.175601 
-0.480582 0.270950 0.206272 
-0.480556 0.267706 0.170807 
-0.480547 0.294074 0.341871 
-0.480544 0.270928 0.203516 
-0.480441 0.307689 0.453812 
-0.480426 0.264423 0.172905 
-0.480406 0.283952 0.263192 
-0.480384 0.283939 0.296706 
-0.480375 0.314620 0.494791 
-0.480306 0.293926 0.351866 
-0.480268 0.314550 0.490332 
-0.480245 0.264324 0.170214 
-0.480196 0.307532 0.470061 
-0.480146 0.293829 0.379691 
-0.480141 0.317986 0.523100 
-0.480138 0.314465 0.485884 
-0.480135 0.300614 0.407805 
-0.480133 0.283791 0.173180 
-0.480077 0.317944 0.527635 
-0.480076 0.280455 0.265194 
-0.480066 0.264225 0.180695 
-0.480042 0.273889 0.214925 
-0.480036 0.297146 0.384395 
-0.480031 0.273883 0.217701 
-0.480023 0.283726 0.299611 
-0.480009 0.273870 0.220481 
-0.479978 0.297110 0.370097 
-0.479974 0.273850 0.223265 
-0.479961 0.283689 0.268921 
-0.479927 0.339473 0.593003 
-0.479927 0.273824 0.226053 
-0.479895 0.297059 0.395193 
-0.479886 0.280344 0.292405 
-0.479868 0.273790 0.228844 
-0.479867 0.286955 0.319563 
-0.479859 0.283629 0.287087 
-0.479827 0.314261 0.498604 
-0.479827 0.300421 0.392727 
-0.479808 0.314248 0.477020 
-0.479797 0.273750 0.231639 
-0.479794 0.270505 0.208677 
-0.479768 0.280275 0.286171 
-0.479760 0.264057 0.175296 
-0.479750 0.276984 0.255382 
-0.479720 0.283547 0.271790 
-0.479708 0.280240 0.259064 
-0.479691 0.283530 0.280861 
-0.479658 0.300315 0.418754 
-0.479624 0.283490 0.296236 
-0.479619 0.273648 0.237240 
-0.479617 0.283486 0.308823 
-0.479614 0.270404 0.197681 
-0.479608 0.314117 0.472605 
-0.479590 0.263964 0.172605 
-0.479565 0.286774 0.316135 
-0.479565 0.276877 0.258219 
-0.479542 0.280143 0.295297 
-0.479540 0.283440 0.289978 
-0.479500 0.314047 0.485238 
-0.479467 0.283397 0.274661 
-0.479409 0.286681 0.322499 
-0.479385 0.313972 0.468201 
-0.479273 0.286599 0.293802 
-0.479270 0.293293 0.344326 
-0.479269 0.317409 0.536049 
-0.479233 0.313872 0.455680 
-0.479231 0.273426 0.211795 
-0.479201 0.283240 0.277535 
-0.479196 0.313848 0.497948 
-0.479186 0.283231 0.268487 
-0.479186 0.279935 0.298191 
-0.479165 0.313827 0.476381 
-0.479153 0.273382 0.203516 
-0.479152 0.299998 0.414507 
-0.479134 0.276628 0.252133 
-0.479112 0.306837 0.473184 
-0.479106 0.276612 0.234829 
-0.479072 0.279868 0.267618 
-0.479067 0.266877 0.172905 
-0.479067 0.306809 0.424810 
-0.478996 0.270055 0.211078 
-0.478962 0.313695 0.471969 
-0.478952 0.317199 0.512728 
-0.478926 0.263598 0.174991 
-0.478915 0.273246 0.234047 
-0.478879 0.299827 0.403007 
-0.478858 0.269977 0.200081 
-0.478832 0.313609 0.183223 
-0.478821 0.273193 0.236846 
-0.478784 0.299768 0.421818 
-0.478776 0.282989 0.289516 
-0.478728 0.279667 0.261486 
-0.478710 0.292950 0.347301 
-0.478695 0.282941 0.274218 
-0.478658 0.306547 0.476947 
-0.478637 0.296280 0.379691 
-0.478623 0.299667 0.410273 
-0.478600 0.296257 0.372557 
-0.478585 0.276311 0.260633 
-0.478562 0.273045 0.184353 
-0.478556 0.296229 0.369001 
-0.478541 0.309934 0.449461 
-0.478529 0.316919 0.539923 
-0.478521 0.313406 0.475742 
-0.478499 0.279534 0.252548 
-0.478498 0.286136 0.312229 
-0.478489 0.313385 0.463179 
-0.478474 0.313375 0.492833 
-0.478446 0.282794 0.292405 
-0.478431 0.282785 0.277088 
-0.478423 0.272966 0.214200 
-0.478422 0.269731 0.186434 
-0.478404 0.272955 0.208677 
-0.478371 0.309824 0.478233 
-0.478363 0.272931 0.222516 
-0.478359 0.292735 0.340315 
-0.478352 0.306351 0.435872 
-0.478327 0.279433 0.255382 
-0.478299 0.269663 0.183719 
-0.478253 0.263227 0.177375 
-0.478233 0.316723 0.525608 
-0.478218 0.313207 0.458801 
-0.478214 0.276097 0.237240 
-0.478204 0.309716 0.453190 
-0.478168 0.285938 0.296236 
-0.478154 0.282621 0.279961 
-0.478153 0.316670 0.530142 
-0.478136 0.292599 0.350276 
-0.478128 0.309667 0.461291 
-0.478092 0.263139 0.174687 
-0.478084 0.285889 0.289978 
-0.478062 0.313105 0.479519 
-0.478060 0.279277 0.270036 
-0.478013 0.282538 0.289054 
-0.477969 0.309564 0.469425 
-0.477942 0.292480 0.333363 
-0.477921 0.295836 0.375565 
-0.477919 0.272678 0.239249 
-0.477916 0.306072 0.419944 
-0.477906 0.302631 0.407221 
-0.477896 0.309516 0.482007 
-0.477879 0.266215 0.180382 
-0.477859 0.282447 0.264764 
-0.477859 0.272643 0.186756 
-0.477857 0.275891 0.245668 
-0.477816 0.292403 0.343281 
-0.477775 0.289031 0.312717 
-0.477708 0.292337 0.329899 
-0.477684 0.282344 0.291940 
-0.477669 0.292313 0.356766 
-0.477635 0.282314 0.267618 
-0.477628 0.337847 0.590163 
-0.477606 0.272499 0.181321 
-0.477565 0.312780 0.458175 
-0.477563 0.272475 0.205571 
-0.477563 0.282272 0.285713 
-0.477549 0.292239 0.353252 
-0.477543 0.278975 0.254963 
-0.477515 0.272448 0.224917 
-0.477502 0.305806 0.427288 
-0.477461 0.272417 0.227696 
-0.477455 0.288837 0.296706 
-0.477437 0.302334 0.418160 
-0.477428 0.292166 0.336319 
-0.477421 0.312685 0.478876 
-0.477412 0.305749 0.438959 
-0.477340 0.302272 0.403007 
-0.477339 0.269121 0.180695 
-0.477313 0.275577 0.239648 
-0.477268 0.305657 0.430968 
-0.477245 0.272293 0.191879 
-0.477245 0.302212 0.421818 
-0.477219 0.298788 0.424279 
-0.477217 0.326690 0.544034 
-0.477205 0.295394 0.347301 
-0.477195 0.309062 0.456297 
-0.477189 0.312533 0.461920 
-0.477182 0.295379 0.371453 
-0.477151 0.282028 0.273334 
-0.477146 0.272237 0.189155 
-0.477098 0.281997 0.282382 
-0.477084 0.308990 0.464405 
-0.477082 0.315961 0.515229 
-0.477066 0.315950 0.506240 
-0.477054 0.285272 0.298664 
-0.477038 0.278680 0.272449 
-0.476993 0.275392 0.219740 
-0.476986 0.268922 0.191220 
-0.476961 0.275374 0.222516 
-0.476924 0.275352 0.248074 
-0.476922 0.281893 0.291474 
-0.476904 0.298591 0.397652 
-0.476891 0.308865 0.472544 
-0.476890 0.281874 0.276196 
-0.476794 0.312274 0.465670 
-0.476721 0.291733 0.325941 
-0.476625 0.281718 0.270036 
-0.476590 0.271920 0.197005 
-0.476583 0.281693 0.294358 
-0.476538 0.312107 0.461291 
-0.476513 0.271876 0.194275 
-0.476451 0.326166 0.547929 
-0.476413 0.298284 0.379132 
-0.476403 0.275051 0.242050 
-0.476401 0.301677 0.409685 
-0.476348 0.305067 0.434046 
-0.476343 0.288164 0.299138 
-0.476305 0.281528 0.263903 
-0.476297 0.278247 0.248484 
-0.476270 0.294814 0.360288 
-0.476255 0.268510 0.193607 
-0.476249 0.301581 0.413325 
-0.476207 0.274938 0.216602 
-0.476168 0.294751 0.356766 
-0.476165 0.288056 0.318074 
-0.476156 0.304945 0.426084 
-0.476116 0.274886 0.224917 
-0.476114 0.284710 0.285713 
-0.476084 0.298077 0.357841 
-0.476061 0.301462 0.398229 
-0.476048 0.294677 0.353252 
-0.476022 0.281361 0.171697 
-0.475968 0.271564 0.207614 
-0.475912 0.294593 0.349746 
-0.475892 0.291226 0.290439 
-0.475839 0.271491 0.199397 
-0.475708 0.297842 0.382144 
-0.475685 0.336473 0.582654 
-0.475642 0.294426 0.363274 
-0.475636 0.311516 0.448223 
-0.475606 0.281115 0.272449 
-0.475605 0.271358 0.191220 
-0.475603 0.277842 0.211437 
-0.475510 0.277787 0.248074 
-0.475504 0.290988 0.328377 
-0.475448 0.301074 0.394046 
-0.475391 0.271236 0.185791 
-0.475356 0.277698 0.250889 
-0.475329 0.336221 0.587322 
-0.475329 0.280951 0.254545 
-0.475309 0.280940 0.266315 
-0.475305 0.311300 0.472544 
-0.475290 0.311290 0.443891 
-0.475261 0.274392 0.227314 
-0.475258 0.287507 0.270913 
-0.475254 0.325347 0.546552 
-0.475235 0.290823 0.334774 
-0.475221 0.287486 0.301564 
-0.475204 0.267917 0.172003 
-0.475197 0.287471 0.307854 
-0.475178 0.307756 0.438347 
-0.475089 0.311158 0.468153 
-0.475078 0.271057 0.201786 
-0.475078 0.280803 0.269159 
-0.475070 0.325221 0.551135 
-0.475030 0.311119 0.480715 
-0.475010 0.290686 0.331317 
-0.474992 0.297394 0.374454 
-0.474988 0.297391 0.385155 
-0.474973 0.287335 0.320499 
-0.474956 0.280731 0.260207 
-0.474947 0.325136 0.536732 
-0.474928 0.293984 0.362729 
-0.474921 0.311048 0.439571 
-0.474876 0.270942 0.193607 
-0.474868 0.280679 0.248484 
-0.474852 0.304109 0.409685 
-0.474850 0.311001 0.463772 
-0.474841 0.297299 0.363818 
-0.474839 0.293929 0.359206 
-0.474807 0.290561 0.292871 
-0.474802 0.277374 0.213838 
-0.474795 0.277370 0.216602 
-0.474756 0.297246 0.360288 
-0.474751 0.280610 0.263042 
-0.474723 0.287184 0.267618 
-0.474700 0.304012 0.413325 
-0.474683 0.270831 0.188178 
-0.474667 0.280560 0.234047 
-0.474629 0.324919 0.560324 
-0.474600 0.274010 0.213113 
-0.474588 0.310830 0.459403 
-0.474586 0.303939 0.428547 
-0.474552 0.280492 0.173807 
-0.474546 0.267546 0.174382 
-0.474511 0.290380 0.324430 
-0.474470 0.280443 0.239648 
-0.474398 0.273894 0.229706 
-0.474380 0.290301 0.314658 
-0.474378 0.273882 0.196667 
-0.474344 0.303784 0.420621 
-0.474343 0.324723 0.536049 
-0.474322 0.310656 0.446985 
-0.474307 0.270617 0.180069 
-0.474303 0.310643 0.455045 
-0.474302 0.303758 0.405468 
-0.474268 0.324672 0.555031 
-0.474244 0.264190 0.173772 
-0.474241 0.286893 0.273334 
-0.474230 0.307142 0.441428 
-0.474212 0.324633 0.540608 
-0.474206 0.270560 0.198713 
-0.474204 0.296900 0.391752 
-0.474200 0.296897 0.366808 
-0.474177 0.280270 0.259780 
-0.474137 0.270520 0.195991 
-0.474091 0.286802 0.303984 
-0.474074 0.276948 0.244448 
-0.474057 0.324527 0.545176 
-0.474021 0.280178 0.228079 
-0.474015 0.286756 0.291474 
-0.473975 0.276890 0.218999 
-0.473972 0.310426 0.442660 
-0.473936 0.290028 0.286171 
-0.473930 0.280125 0.250889 
-0.473907 0.310384 0.483838 
-0.473879 0.267170 0.176757 
-0.473845 0.324382 0.530821 
-0.473795 0.338784 0.592710 
-0.473783 0.280038 0.236451 
-0.473772 0.289928 0.333744 
-0.473758 0.280023 0.265446 
-0.473730 0.273508 0.204521 
-0.473712 0.289892 0.295297 
-0.473707 0.313726 0.489569 
-0.473680 0.279977 0.239249 
-0.473668 0.283248 0.299655 
-0.473665 0.310225 0.446366 
-0.473630 0.273451 0.199055 
-0.473620 0.276683 0.191550 
-0.473620 0.270225 0.182450 
-0.473611 0.324222 0.539923 
-0.473603 0.296524 0.376895 
-0.473598 0.310182 0.438347 
-0.473577 0.263818 0.176139 
-0.473576 0.310167 0.475019 
-0.473565 0.279909 0.242050 
-0.473498 0.289760 0.320499 
-0.473491 0.296454 0.366259 
-0.473458 0.324117 0.544487 
-0.473451 0.310085 0.430363 
-0.473447 0.324110 0.558929 
-0.473342 0.303142 0.412142 
-0.473341 0.310013 0.450077 
-0.473314 0.289648 0.310763 
-0.473312 0.309994 0.442044 
-0.473299 0.292976 0.354617 
-0.473282 0.323996 0.549060 
-0.473255 0.289612 0.336683 
-0.473250 0.306507 0.424880 
-0.473238 0.270007 0.192940 
-0.473222 0.292928 0.337721 
-0.473217 0.286273 0.275750 
-0.473205 0.289581 0.317082 
-0.473203 0.309923 0.434046 
-0.473196 0.323938 0.563530 
-0.473172 0.292897 0.351118 
-0.473160 0.279669 0.230479 
-0.473147 0.279662 0.250474 
-0.473145 0.269954 0.190231 
-0.473081 0.323859 0.553641 
-0.473008 0.309795 0.445747 
-0.472998 0.309789 0.453794 
-0.472992 0.279570 0.236056 
-0.472983 0.279565 0.253289 
-0.472975 0.273072 0.209645 
-0.472953 0.273060 0.206905 
-0.472948 0.313223 0.484487 
-0.472921 0.323749 0.568139 
-0.472916 0.276272 0.232485 
-0.472910 0.279521 0.173206 
-0.472894 0.276259 0.193941 
-0.472878 0.296070 0.372787 
-0.472874 0.273014 0.201440 
-0.472838 0.296045 0.369245 
-0.472777 0.279443 0.241647 
-0.472765 0.299375 0.384589 
-0.472759 0.289308 0.319999 
-0.472731 0.299354 0.388167 
-0.472730 0.276163 0.238053 
-0.472716 0.289282 0.282382 
-0.472689 0.292598 0.340668 
-0.472686 0.309584 0.449455 
-0.472685 0.323588 0.548369 
-0.472668 0.272895 0.193274 
-0.472651 0.279369 0.244448 
-0.472633 0.295916 0.341714 
-0.472609 0.289216 0.297718 
-0.472608 0.323535 0.562829 
-0.472591 0.282604 0.280566 
-0.472574 0.269628 0.198029 
-0.472570 0.289193 0.310274 
-0.472551 0.312960 0.492699 
-0.472541 0.282574 0.302061 
-0.472513 0.279287 0.247252 
-0.472502 0.269587 0.195315 
-0.472500 0.302603 0.415185 
-0.472496 0.276027 0.243635 
-0.472463 0.305997 0.412733 
-0.472431 0.279238 0.227314 
-0.472385 0.295761 0.351651 
-0.472366 0.279200 0.230093 
-0.472364 0.279199 0.250059 
-0.472346 0.309361 0.453168 
-0.472290 0.279155 0.232875 
-0.472265 0.323300 0.557533 
-0.472261 0.323298 0.543111 
-0.472243 0.295673 0.348156 
-0.472239 0.288990 0.279060 
-0.472229 0.288984 0.306884 
-0.472204 0.295648 0.379330 
-0.472183 0.285647 0.278160 
-0.472160 0.312701 0.479423 
-0.472159 0.275830 0.196329 
-0.472132 0.295603 0.368693 
-0.472127 0.302364 0.407334 
-0.472101 0.279044 0.238451 
-0.472090 0.323180 0.547677 
-0.472036 0.275758 0.234872 
-0.472027 0.279000 0.255684 
-0.472027 0.323138 0.528785 
-0.472020 0.288856 0.319499 
-0.472019 0.323132 0.562128 
-0.471989 0.278977 0.241245 
-0.471988 0.309127 0.456886 
-0.471987 0.269293 0.168732 
-0.471984 0.312584 0.475019 
-0.471902 0.285478 0.281020 
-0.471894 0.323046 0.552252 
-0.471885 0.337419 0.585191 
-0.471876 0.309053 0.432828 
-0.471871 0.288764 0.303503 
-0.471865 0.278904 0.244041 
-0.471854 0.282163 0.271122 
-0.471841 0.278890 0.258500 
-0.471829 0.275637 0.240439 
-0.471808 0.322987 0.537867 
-0.471769 0.278847 0.215869 
-0.471765 0.278845 0.210362 
-0.471758 0.272370 0.190231 
-0.471747 0.288689 0.275750 
-0.471729 0.278823 0.246841 
-0.471726 0.278822 0.221392 
-0.471690 0.305497 0.427337 
-0.471677 0.308923 0.424880 
-0.471668 0.295313 0.351118 
-0.471661 0.308913 0.180479 
-0.471650 0.288630 0.171697 
-0.471636 0.305462 0.179869 
-0.471621 0.305452 0.415780 
-0.471614 0.308882 0.436510 
-0.471611 0.308880 0.460608 
-0.471586 0.291915 0.346567 
-0.471580 0.278736 0.249645 
-0.471564 0.288577 0.322415 
-0.471544 0.275471 0.220643 
-0.471496 0.288536 0.300132 
-0.471488 0.312256 0.504737 
-0.471470 0.295189 0.385887 
-0.471430 0.322729 0.561427 
-0.471421 0.322723 0.528106 
-0.471420 0.278641 0.252451 
-0.471411 0.278635 0.235267 
-0.471406 0.281895 0.304460 
-0.471381 0.312185 0.495827 
-0.471364 0.295122 0.344143 
-0.471338 0.281854 0.276810 
-0.471335 0.308699 0.440197 
-0.471326 0.322658 0.532640 
-0.471300 0.322640 0.551557 
-0.471279 0.268889 0.184184 
-0.471244 0.301799 0.377455 
-0.471228 0.301789 0.384589 
-0.471207 0.322576 0.537182 
-0.471163 0.322546 0.566026 
-0.471146 0.275238 0.237255 
-0.471123 0.288307 0.303022 
-0.471106 0.288297 0.296771 
-0.471089 0.278445 0.169918 
-0.471083 0.322491 0.556138 
-0.471082 0.288282 0.309297 
-0.471080 0.294944 0.354080 
-0.471078 0.278439 0.243635 
-0.471075 0.301690 0.395344 
-0.471004 0.268732 0.200055 
-0.470989 0.301635 0.398942 
-0.470986 0.281644 0.261750 
-0.470983 0.288222 0.315593 
-0.470971 0.278375 0.212751 
-0.470944 0.278359 0.246431 
-0.470897 0.322364 0.546294 
-0.470890 0.278327 0.223781 
-0.470866 0.278313 0.260889 
-0.470848 0.284840 0.283423 
-0.470842 0.322326 0.560726 
-0.470834 0.281553 0.273519 
-0.470806 0.294773 0.347096 
-0.470797 0.294767 0.381757 
-0.470797 0.278273 0.249230 
-0.470787 0.308341 0.427942 
-0.470786 0.304911 0.430393 
-0.470767 0.304899 0.418826 
-0.470767 0.275016 0.209286 
-0.470747 0.288077 0.299655 
-0.470743 0.275003 0.206551 
-0.470736 0.288071 0.305914 
-0.470726 0.308300 0.416375 
-0.470708 0.274982 0.223024 
-0.470705 0.278218 0.232094 
-0.470698 0.291366 0.342565 
-0.470676 0.308267 0.439581 
-0.470661 0.274955 0.225783 
-0.470576 0.268489 0.186550 
-0.470548 0.301353 0.380455 
-0.470522 0.278110 0.237654 
-0.470515 0.268453 0.170800 
-0.470515 0.291252 0.339101 
-0.470492 0.322087 0.555440 
-0.470467 0.278078 0.254838 
-0.470465 0.322068 0.541045 
-0.470453 0.301293 0.391178 
-0.470449 0.274831 0.234083 
-0.470409 0.281299 0.258500 
-0.470380 0.308074 0.443270 
-0.470375 0.287849 0.302542 
-0.470364 0.308063 0.408510 
-0.470341 0.308048 0.423677 
-0.470277 0.321939 0.522230 
-0.470248 0.274713 0.239634 
-0.470241 0.268297 0.202419 
-0.470236 0.325455 0.552252 
-0.470167 0.277900 0.215136 
-0.470159 0.277895 0.246020 
-0.470119 0.321831 0.531275 
-0.470113 0.321827 0.550168 
-0.470100 0.284387 0.253289 
-0.470093 0.277856 0.223402 
-0.470045 0.277828 0.226165 
-0.470028 0.268176 0.175830 
-0.470001 0.281055 0.264142 
-0.469974 0.274553 0.211663 
-0.469936 0.274531 0.206197 
-0.469926 0.287575 0.311704 
-0.469913 0.277750 0.231703 
-0.469899 0.274510 0.203470 
-0.469863 0.268081 0.173162 
-0.469861 0.311179 0.468708 
-0.469856 0.277717 0.251614 
-0.469837 0.325179 0.546986 
-0.469829 0.277700 0.234477 
-0.469811 0.300881 0.387027 
-0.469806 0.274455 0.228159 
-0.469804 0.335930 0.587717 
-0.469786 0.284197 0.285822 
-0.469779 0.280922 0.266968 
-0.469766 0.294122 0.356502 
-0.469687 0.277616 0.254416 
-0.469625 0.277580 0.240037 
-0.469621 0.287388 0.262611 
-0.469615 0.311016 0.476838 
-0.469604 0.321479 0.526069 
-0.469543 0.307525 0.411551 
-0.469516 0.321418 0.530594 
-0.469498 0.267874 0.167842 
-0.469456 0.307468 0.426731 
-0.469381 0.307419 0.415185 
-0.469369 0.290543 0.331684 
-0.469355 0.277420 0.217517 
-0.469334 0.331981 0.574876 
-0.469331 0.277406 0.206551 
-0.469310 0.321277 0.554044 
-0.469296 0.277385 0.203820 
-0.469279 0.297167 0.374659 
-0.469271 0.307347 0.179564 
-0.469249 0.277358 0.201094 
-0.469202 0.267705 0.175521 
-0.469201 0.307302 0.418826 
-0.469191 0.277323 0.228546 
-0.469154 0.293739 0.359461 
-0.469150 0.283813 0.255684 
-0.469120 0.321148 0.568512 
-0.469098 0.321132 0.516377 
-0.469094 0.280513 0.237654 
-0.469076 0.321118 0.558623 
-0.469060 0.321106 0.520879 
-0.469038 0.277233 0.234083 
-0.469012 0.300369 0.393612 
-0.469010 0.273990 0.227772 
-0.469004 0.307173 0.422473 
-0.468965 0.283701 0.258500 
-0.468932 0.300318 0.397200 
-0.468912 0.321005 0.529911 
-0.468868 0.307084 0.410959 
-0.468858 0.267508 0.170199 
-0.468835 0.300256 0.400794 
-0.468790 0.307032 0.426126 
-0.468734 0.310432 0.459343 
-0.468708 0.306979 0.414591 
-0.468705 0.283544 0.249645 
-0.468654 0.310379 0.484347 
-0.468603 0.293394 0.332199 
-0.468591 0.296732 0.377641 
-0.468533 0.276934 0.219894 
-0.468531 0.306863 0.418228 
-0.468451 0.320690 0.520203 
-0.468442 0.276880 0.200747 
-0.468436 0.310235 0.438966 
-0.468425 0.299994 0.371676 
-0.468397 0.276854 0.228159 
-0.468378 0.270418 0.186224 
-0.468368 0.273615 0.213670 
-0.468345 0.310175 0.463064 
-0.468333 0.306733 0.406747 
-0.468308 0.293209 0.318999 
-0.468307 0.306716 0.433449 
-0.468250 0.324080 0.554742 
-0.468231 0.273535 0.200055 
-0.468217 0.283248 0.169918 
-0.468208 0.267138 0.172553 
-0.468202 0.320519 0.533756 
-0.468200 0.279978 0.240037 
-0.468169 0.273499 0.197345 
-0.468125 0.270272 0.180863 
-0.468072 0.283161 0.246431 
-0.468036 0.306538 0.413996 
-0.467995 0.283114 0.260889 
-0.467894 0.306445 0.429176 
-0.467887 0.320303 0.510545 
-0.467876 0.309864 0.479292 
-0.467874 0.320294 0.506069 
-0.467858 0.303015 0.404983 
-0.467854 0.266935 0.180229 
-0.467843 0.320273 0.519528 
-0.467761 0.276478 0.211301 
-0.467755 0.323738 0.563914 
-0.467748 0.286242 0.297747 
-0.467745 0.273251 0.170800 
-0.467710 0.289516 0.311211 
-0.467708 0.266852 0.177563 
-0.467699 0.309747 0.496301 
-0.467683 0.276432 0.203120 
-0.467669 0.286193 0.276360 
-0.467573 0.276367 0.197687 
-0.467559 0.273142 0.216034 
-0.467519 0.306200 0.409777 
-0.467490 0.309608 0.442032 
-0.467473 0.320020 0.537604 
-0.467443 0.309577 0.458078 
-0.467438 0.269875 0.183220 
-0.467416 0.289334 0.323809 
-0.467396 0.286026 0.279204 
-0.467370 0.292622 0.334608 
-0.467349 0.285998 0.294404 
-0.467323 0.276219 0.189572 
-0.467296 0.279438 0.242415 
-0.467289 0.289255 0.314105 
-0.467274 0.319883 0.509876 
-0.467266 0.319878 0.514359 
-0.467258 0.319873 0.505403 
-0.467230 0.306011 0.428567 
-0.467197 0.272931 0.191605 
-0.467191 0.305985 0.417031 
-0.467180 0.319819 0.523354 
-0.467161 0.309390 0.453739 
-0.467144 0.289166 0.320400 
-0.467124 0.292467 0.321407 
-0.467111 0.279327 0.219894 
-0.467097 0.272872 0.173162 
-0.467025 0.299097 0.370565 
-0.467023 0.295739 0.362421 
-0.466956 0.276002 0.216405 
-0.466937 0.295685 0.358916 
-0.466937 0.275991 0.219144 
-0.466916 0.275979 0.205488 
-0.466910 0.341131 0.588430 
-0.466888 0.309210 0.486795 
-0.466869 0.282433 0.237255 
-0.466855 0.288987 0.316999 
-0.466809 0.275915 0.227385 
-0.466762 0.282368 0.240037 
-0.466741 0.272664 0.218395 
-0.466736 0.285623 0.258074 
-0.466691 0.275846 0.194639 
-0.466691 0.305658 0.412806 
-0.466683 0.288880 0.323301 
-0.466660 0.319464 0.509207 
-0.466655 0.319460 0.513687 
-0.466648 0.285569 0.269796 
-0.466643 0.282296 0.242821 
-0.466643 0.319451 0.504737 
-0.466606 0.275796 0.191938 
-0.466601 0.319423 0.500277 
-0.466558 0.272558 0.229359 
-0.466551 0.288798 0.313608 
-0.466537 0.319379 0.495827 
-0.466530 0.308972 0.445097 
-0.466517 0.305544 0.397781 
-0.466470 0.272506 0.193964 
-0.466419 0.305479 0.401379 
-0.466415 0.308897 0.461156 
-0.466387 0.295336 0.365382 
-0.466384 0.278892 0.244788 
-0.466372 0.298679 0.377079 
-0.466357 0.298669 0.373540 
-0.466337 0.269240 0.177563 
-0.466283 0.278832 0.222266 
-0.466283 0.288632 0.303975 
-0.466275 0.298617 0.366485 
-0.466255 0.322700 0.557222 
-0.466233 0.291910 0.292480 
-0.466210 0.288588 0.326204 
-0.466185 0.291880 0.327227 
-0.466162 0.275533 0.213303 
-0.466156 0.275530 0.216034 
-0.466146 0.285262 0.254838 
-0.466139 0.275520 0.207853 
-0.466126 0.305288 0.423705 
-0.466119 0.288531 0.316499 
-0.466111 0.275503 0.205134 
-0.466109 0.275502 0.221509 
-0.466101 0.288520 0.285360 
-0.466092 0.278717 0.250358 
-0.466084 0.305260 0.178345 
-0.466068 0.275477 0.224252 
-0.466057 0.285207 0.284437 
-0.466049 0.305237 0.382890 
-0.466047 0.319044 0.508538 
-0.466018 0.319024 0.517501 
-0.465983 0.319000 0.499614 
-0.465953 0.288428 0.332533 
-0.465950 0.275408 0.229749 
-0.465930 0.291720 0.323809 
-0.465915 0.305150 0.393612 
-0.465913 0.272181 0.220752 
-0.465892 0.288391 0.306854 
-0.465881 0.275367 0.194302 
-0.465871 0.329531 0.570634 
-0.465865 0.295006 0.347916 
-0.465850 0.305107 0.415835 
-0.465842 0.329511 0.560726 
-0.465790 0.288328 0.288215 
-0.465740 0.308449 0.489893 
-0.465738 0.294925 0.368342 
-0.465724 0.288287 0.329109 
-0.465708 0.329416 0.550863 
-0.465695 0.275257 0.173162 
-0.465675 0.288256 0.319392 
-0.465664 0.304985 0.419464 
-0.465622 0.288224 0.252451 
-0.465598 0.291512 0.339934 
-0.465594 0.284924 0.281134 
-0.465556 0.308328 0.448160 
-0.465507 0.301493 0.384747 
-0.465496 0.329266 0.555440 
-0.465479 0.288135 0.325693 
-0.465472 0.281588 0.230922 
-0.465463 0.278341 0.247157 
-0.465446 0.278331 0.224635 
-0.465434 0.318624 0.507869 
-0.465434 0.318624 0.512342 
-0.465414 0.294720 0.354338 
-0.465368 0.304791 0.378767 
-0.465361 0.275060 0.212937 
-0.465354 0.275056 0.210214 
-0.465348 0.284773 0.266091 
-0.465340 0.275047 0.218395 
-0.465336 0.275045 0.207495 
-0.465335 0.343643 0.593813 
-0.465334 0.304769 0.385887 
-0.465294 0.329122 0.569927 
-0.465292 0.304741 0.389458 
-0.465217 0.308103 0.451851 
-0.465193 0.284678 0.257221 
-0.465170 0.287943 0.300136 
-0.465150 0.287932 0.306365 
-0.465150 0.278154 0.252725 
-0.465147 0.291229 0.294878 
-0.465147 0.274933 0.196661 
