# .PCD v.7 - Point Cloud Data file format
VERSION .7
FIELDS x y z
SIZE 4 4 4
TYPE F F F
COUNT 1 1 1
WIDTH 1649
HEIGHT 1
POINTS 1649
DATA ascii
0.615500 0.204032 0.417099 
0.615547 0.159550 0.240926 
0.615547 0.159550 0.306727 
0.615552 0.193621 0.407156 
0.615610 0.190186 0.372008 
0.615617 0.169687 0.399037 
0.615641 0.207579 0.442373 
0.615663 0.169699 0.391359 
0.615670 0.193659 0.383989 
0.615690 0.211107 0.468576 
0.615703 0.193669 0.395539 
0.615704 0.190215 0.375823 
0.615718 0.159594 0.270004 
0.615719 0.166332 0.357190 
0.615744 0.183351 0.367208 
0.615745 0.186784 0.371508 
0.615777 0.190238 0.379647 
0.615831 0.190254 0.383478 
0.615852 0.207650 0.450875 
0.615865 0.190265 0.387317 
0.615878 0.190269 0.391163 
0.615963 0.159657 0.303519 
0.615985 0.169788 0.336182 
0.615991 0.204195 0.425484 
0.616150 0.183472 0.393972 
0.616171 0.186914 0.360611 
0.616195 0.159718 0.247554 
0.616240 0.197306 0.404336 
0.616252 0.169862 0.372801 
0.616263 0.156377 0.135152 
0.616298 0.204297 0.417640 
0.616311 0.207805 0.455428 
0.616389 0.204327 0.433908 
0.616402 0.159771 0.135360 
0.616444 0.211366 0.460570 
0.616470 0.169922 0.395721 
0.616474 0.214905 0.457148 
0.616484 0.193915 0.399931 
0.616538 0.169940 0.332929 
0.616605 0.190493 0.403277 
0.616609 0.159825 0.270394 
0.616625 0.166577 0.135776 
0.616652 0.190508 0.383989 
0.616678 0.207928 0.438974 
0.616740 0.166608 0.325520 
0.616742 0.173395 0.347857 
0.616796 0.187103 0.383478 
0.616865 0.183685 0.379139 
0.616941 0.183708 0.398352 
0.616972 0.183717 0.390644 
0.617031 0.159934 0.328304 
0.617091 0.173493 0.340845 
0.617140 0.197595 0.397107 
0.617200 0.166732 0.376601 
0.617218 0.166737 0.354404 
0.617240 0.194153 0.404336 
0.617243 0.166744 0.322279 
0.617291 0.187253 0.368697 
0.617295 0.194170 0.400457 
0.617345 0.139956 0.151982 
0.617349 0.173565 0.344585 
0.617354 0.190725 0.376831 
0.617402 0.156666 0.290294 
0.617424 0.190746 0.380662 
0.617473 0.190762 0.384501 
0.617502 0.190771 0.388347 
0.617526 0.153341 0.225328 
0.617565 0.211750 0.457148 
0.617588 0.173633 0.348334 
0.617668 0.215321 0.470913 
0.617675 0.197766 0.413191 
0.617691 0.183931 0.379647 
0.617691 0.170258 0.366216 
0.617700 0.208273 0.435575 
0.617745 0.160119 0.267612 
0.617778 0.183957 0.387317 
0.617814 0.170292 0.370008 
0.617891 0.211862 0.453155 
0.617914 0.197842 0.401509 
0.617951 0.173734 0.378124 
0.617970 0.170335 0.340845 
0.618004 0.153459 0.135360 
0.618006 0.173750 0.355859 
0.618013 0.215442 0.475526 
0.618097 0.166974 0.380921 
0.618128 0.170379 0.389088 
0.618263 0.204948 0.443498 
0.618280 0.191011 0.400457 
0.618291 0.208472 0.461147 
0.618294 0.191015 0.385012 
0.618302 0.143501 0.188027 
0.618391 0.160287 0.271176 
0.618430 0.143531 0.191083 
0.618434 0.173870 0.348811 
0.618449 0.184157 0.407156 
0.618466 0.205015 0.452015 
0.618484 0.173884 0.367208 
0.618517 0.173894 0.338044 
0.618520 0.205033 0.439534 
0.618521 0.184178 0.403277 
0.618568 0.184192 0.383989 
0.618595 0.167109 0.319486 
0.618615 0.140244 0.146452 
0.618624 0.156976 0.287512 
0.618638 0.160351 0.267999 
0.618702 0.173946 0.374816 
0.618704 0.208612 0.432175 
0.618705 0.167138 0.351611 
0.618780 0.167159 0.373808 
0.618791 0.173971 0.341784 
0.618821 0.170570 0.341314 
0.618848 0.173987 0.356343 
0.618854 0.219290 0.472666 
0.618956 0.194692 0.397630 
0.619077 0.174051 0.334776 
0.619078 0.170641 0.345058 
0.619087 0.160467 0.261655 
0.619093 0.191262 0.400983 
0.619108 0.157099 0.135776 
0.619158 0.212297 0.466893 
0.619183 0.174081 0.363909 
0.619211 0.215859 0.463456 
0.619225 0.170681 0.363417 
0.619232 0.140384 0.143683 
0.619315 0.170706 0.348811 
0.619320 0.174119 0.367705 
0.619357 0.205311 0.469745 
0.619386 0.198314 0.410358 
0.619398 0.170729 0.338044 
0.619449 0.198334 0.430519 
0.619495 0.174169 0.353054 
0.619528 0.212423 0.471497 
0.619531 0.160582 0.268386 
0.619544 0.191401 0.417099 
0.619602 0.215996 0.468055 
0.619619 0.219561 0.473250 
0.619639 0.198395 0.426580 
0.619665 0.191439 0.413191 
0.619667 0.194916 0.405926 
0.619758 0.170828 0.386287 
0.619764 0.160643 0.265208 
0.619766 0.191470 0.409290 
0.619833 0.205468 0.444624 
0.619848 0.194973 0.426032 
0.619865 0.174273 0.360611 
0.619889 0.212547 0.458869 
0.619894 0.191509 0.382185 
0.619943 0.191525 0.397630 
0.619967 0.216123 0.472666 
0.620155 0.174354 0.368201 
0.620190 0.160753 0.136191 
0.620203 0.191605 0.421559 
0.620270 0.174387 0.372008 
0.620332 0.205634 0.449168 
0.620339 0.174406 0.353535 
0.620347 0.191650 0.417640 
0.620378 0.170999 0.353054 
0.620524 0.205698 0.466312 
0.620532 0.174460 0.357313 
0.620574 0.191720 0.409824 
0.620613 0.209255 0.462878 
0.620646 0.195224 0.426580 
0.620656 0.191745 0.405926 
0.620705 0.174509 0.361099 
0.620748 0.171101 0.360611 
0.620758 0.191776 0.398152 
0.620779 0.191783 0.394276 
0.620790 0.160908 0.333853 
0.620792 0.219977 0.469797 
0.620805 0.205791 0.453725 
0.620810 0.167707 0.303299 
0.620881 0.205816 0.441211 
0.620899 0.205822 0.462301 
0.620991 0.174589 0.368697 
0.621073 0.157597 0.298800 
0.621079 0.212955 0.464033 
0.621092 0.195364 0.414803 
0.621140 0.216532 0.469216 
0.621151 0.191898 0.418181 
0.621183 0.174643 0.354016 
0.621199 0.195398 0.410891 
0.621223 0.171232 0.353535 
0.621244 0.167824 0.353054 
0.621253 0.205939 0.458296 
0.621277 0.191937 0.414266 
0.621374 0.174697 0.357798 
0.621377 0.171274 0.383478 
0.621406 0.198960 0.423737 
0.621416 0.171285 0.357313 
0.621467 0.167885 0.390644 
0.621510 0.140901 0.167792 
0.621559 0.199009 0.419804 
0.621595 0.192035 0.394795 
0.621597 0.192036 0.390922 
0.621615 0.195529 0.423193 
0.621636 0.192048 0.426580 
0.621696 0.174788 0.365387 
0.621751 0.188606 0.390407 
0.621806 0.192100 0.422648 
0.621861 0.161186 0.327336 
0.621877 0.167995 0.349766 
0.621896 0.206152 0.450301 
0.621938 0.174855 0.373008 
0.621977 0.188675 0.422103 
0.622028 0.174881 0.376831 
0.622031 0.206197 0.458869 
0.622083 0.192186 0.414803 
0.622154 0.171488 0.380154 
0.622190 0.192219 0.410891 
0.622194 0.161272 0.331051 
0.622216 0.174934 0.358283 
0.622217 0.141061 0.165010 
0.622325 0.192261 0.443498 
0.622405 0.199280 0.436686 
0.622450 0.206336 0.463456 
0.622521 0.209898 0.460016 
0.622584 0.192341 0.439534 
0.622599 0.213476 0.473834 
0.622674 0.141164 0.171088 
0.622704 0.171640 0.350720 
0.622751 0.154638 0.136399 
0.622771 0.175090 0.373508 
0.622781 0.206446 0.476702 
0.622842 0.195914 0.432175 
0.622880 0.141211 0.174136 
0.622888 0.192435 0.415341 
0.622957 0.168287 0.300913 
0.622975 0.175147 0.385012 
0.622985 0.171717 0.380662 
0.623003 0.175155 0.388862 
0.623106 0.168327 0.387832 
0.623128 0.168333 0.357798 
0.623234 0.192541 0.427677 
0.623238 0.161543 0.324529 
0.623324 0.171811 0.347425 
0.623344 0.168392 0.346952 
0.623371 0.196081 0.420345 
0.623372 0.175259 0.366371 
0.623387 0.189102 0.395313 
0.623408 0.192595 0.423737 
0.623527 0.185668 0.394795 
0.623550 0.171873 0.369690 
0.623598 0.141374 0.159436 
0.623605 0.175324 0.374008 
0.623637 0.196165 0.432727 
0.623638 0.210275 0.456575 
0.623683 0.210290 0.473834 
0.623691 0.175348 0.377839 
0.623700 0.196184 0.445187 
0.623715 0.175355 0.355459 
0.623734 0.189208 0.419263 
0.623803 0.175380 0.385523 
0.623832 0.175388 0.393238 
0.623887 0.185776 0.418722 
0.623965 0.196268 0.441211 
0.624015 0.185814 0.414803 
0.624033 0.192788 0.428225 
0.624065 0.175454 0.363054 
0.624093 0.210428 0.469797 
0.624113 0.172028 0.362565 
0.624169 0.192830 0.440652 
0.624178 0.189342 0.399720 
0.624218 0.168628 0.298094 
0.624334 0.175529 0.370682 
0.624411 0.192905 0.436686 
0.624439 0.175559 0.374508 
0.624538 0.175587 0.405396 
0.624541 0.185971 0.423193 
0.624587 0.175600 0.382185 
0.624590 0.168728 0.294855 
0.624598 0.175603 0.401509 
0.624614 0.192968 0.412492 
0.624630 0.175612 0.386034 
0.624653 0.175619 0.389892 
0.624655 0.175619 0.393757 
0.624673 0.196491 0.454295 
0.624693 0.186016 0.419263 
0.624750 0.207098 0.473834 
0.624783 0.189526 0.411959 
0.624816 0.172222 0.424935 
0.624882 0.189556 0.444624 
0.625003 0.196594 0.437797 
0.625011 0.189595 0.428225 
0.625011 0.193090 0.424827 
0.625099 0.172300 0.366864 
0.625138 0.186148 0.399720 
0.625146 0.189636 0.440652 
0.625158 0.186154 0.388080 
0.625169 0.175764 0.413729 
0.625172 0.186158 0.391952 
0.625195 0.193147 0.449735 
0.625205 0.193150 0.437242 
0.625221 0.210809 0.475003 
0.625246 0.172341 0.413191 
0.625277 0.196680 0.446312 
0.625322 0.200214 0.442889 
0.625335 0.193190 0.458296 
0.625347 0.172369 0.409290 
0.625355 0.175816 0.378846 
0.625371 0.162096 0.339907 
0.625416 0.175833 0.382692 
0.625429 0.193219 0.433279 
0.625434 0.172393 0.429415 
0.625458 0.175845 0.398152 
0.625478 0.175851 0.390407 
0.625478 0.175851 0.394276 
0.625478 0.189737 0.416415 
0.625485 0.193237 0.445750 
0.625520 0.210910 0.453699 
0.625547 0.196765 0.442330 
0.625632 0.186295 0.415878 
0.625636 0.210949 0.470958 
0.625686 0.189800 0.408576 
0.625758 0.189822 0.404667 
0.625772 0.196836 0.450867 
0.625902 0.196877 0.459443 
0.625934 0.207491 0.470377 
0.626000 0.193396 0.437797 
0.626117 0.193432 0.458869 
0.626150 0.176040 0.430519 
0.626186 0.176050 0.379350 
0.626225 0.141970 0.169065 
0.626225 0.193466 0.433831 
0.626235 0.176064 0.402562 
0.626245 0.172616 0.378846 
0.626246 0.176067 0.383200 
0.626279 0.176076 0.398675 
0.626285 0.176078 0.387057 
0.626303 0.176083 0.390922 
0.626305 0.197004 0.472666 
0.626320 0.197009 0.464033 
0.626454 0.193536 0.454865 
0.626503 0.142033 0.142427 
0.626513 0.176142 0.422648 
0.626597 0.172713 0.422103 
0.626721 0.186620 0.404667 
0.626737 0.176205 0.435020 
0.626755 0.176210 0.447469 
0.626770 0.193634 0.450867 
0.626776 0.193636 0.421968 
0.626833 0.142107 0.178257 
0.626900 0.176251 0.410891 
0.626953 0.186689 0.424827 
0.626980 0.190192 0.437797 
0.627022 0.193712 0.434383 
0.627054 0.176294 0.403088 
0.627064 0.193725 0.446875 
0.627112 0.176310 0.387568 
0.627124 0.176314 0.395313 
0.627147 0.176320 0.427128 
0.627160 0.155733 0.284348 
0.627202 0.162570 0.323056 
0.627206 0.190261 0.433831 
0.627223 0.169440 0.398152 
0.627229 0.193776 0.430418 
0.627239 0.193779 0.455435 
0.627357 0.169476 0.345539 
0.627365 0.186811 0.413026 
0.627415 0.193833 0.426461 
0.627489 0.197376 0.469216 
0.627556 0.172977 0.418722 
0.627575 0.186874 0.429322 
0.627714 0.176480 0.411425 
0.627833 0.176513 0.444061 
0.627833 0.173054 0.376008 
0.627920 0.176537 0.399720 
0.628024 0.194021 0.456005 
0.628028 0.194022 0.430967 
0.628096 0.155965 0.261484 
0.628199 0.201135 0.449126 
0.628246 0.197614 0.461164 
0.628274 0.187082 0.409636 
0.628283 0.176639 0.419804 
0.628342 0.176656 0.448602 
0.628345 0.194120 0.452000 
0.628367 0.173201 0.419263 
0.628431 0.173219 0.435575 
0.628498 0.173237 0.415341 
0.628540 0.190666 0.451434 
0.628548 0.156078 0.268270 
0.628558 0.176717 0.432175 
0.628620 0.176734 0.408046 
0.628627 0.197734 0.474419 
0.628629 0.176736 0.444624 
0.628644 0.194213 0.448001 
0.628681 0.201290 0.453699 
0.628734 0.176766 0.384722 
0.628741 0.187221 0.438353 
0.628806 0.169867 0.342701 
0.628824 0.176791 0.453155 
0.628921 0.194298 0.444007 
0.628970 0.187289 0.434383 
0.629092 0.176867 0.420345 
0.629132 0.194364 0.452567 
0.629135 0.176879 0.449168 
0.629138 0.201436 0.458286 
0.629154 0.201441 0.475587 
0.629177 0.194378 0.440020 
0.629193 0.201454 0.466919 
0.629248 0.194399 0.461164 
0.629268 0.194406 0.469797 
0.629281 0.176920 0.457722 
0.629377 0.142684 0.151969 
0.629437 0.176964 0.408576 
0.629470 0.156306 0.226506 
0.629568 0.201573 0.462884 
0.629573 0.201575 0.471539 
0.629593 0.177008 0.396870 
0.629660 0.194527 0.465764 
0.629678 0.156358 0.265441 
0.629692 0.177036 0.441211 
0.629819 0.198109 0.470958 
0.629902 0.177094 0.420886 
0.629919 0.194607 0.453133 
0.629943 0.163281 0.310407 
0.630040 0.177133 0.416953 
0.630046 0.194646 0.470377 
0.630157 0.177166 0.413026 
0.630159 0.198216 0.458286 
0.630239 0.173717 0.412492 
0.630244 0.170256 0.339855 
0.630367 0.177225 0.429322 
0.630379 0.194749 0.457715 
0.630405 0.194757 0.475003 
0.630489 0.198320 0.454266 
0.630490 0.177260 0.441770 
0.630505 0.194788 0.445126 
0.630766 0.194868 0.441131 
0.630824 0.194886 0.470958 
0.630852 0.177362 0.417490 
0.630971 0.177395 0.413559 
0.630995 0.198479 0.467496 
0.631016 0.177408 0.446312 
0.631133 0.160150 0.300188 
0.631287 0.170537 0.404667 
0.631288 0.177484 0.442330 
0.631368 0.188003 0.436038 
0.631393 0.191531 0.475003 
0.631539 0.177555 0.438353 
0.631596 0.195125 0.462884 
0.631670 0.188093 0.444566 
0.631785 0.177624 0.414093 
0.631811 0.177631 0.446875 
0.631884 0.143252 0.170593 
0.631886 0.177652 0.410166 
0.631956 0.195236 0.476172 
0.631988 0.188188 0.461737 
0.632001 0.195250 0.467496 
0.632086 0.177709 0.442889 
0.632153 0.191762 0.458286 
0.632165 0.177731 0.426461 
0.632340 0.177780 0.438909 
0.632380 0.195367 0.472120 
0.632591 0.191895 0.471539 
0.632711 0.174398 0.446875 
0.632884 0.177933 0.443448 
0.632972 0.177958 0.427005 
0.632973 0.188481 0.449689 
0.632987 0.174474 0.442889 
0.633036 0.143514 0.173936 
0.633223 0.178028 0.460590 
0.633288 0.178046 0.419102 
0.633523 0.188645 0.441686 
0.633570 0.178126 0.456575 
0.633603 0.178135 0.407298 
0.633616 0.178139 0.473834 
0.633669 0.164247 0.340779 
0.633766 0.188717 0.450252 
0.633913 0.188761 0.458856 
0.633935 0.195847 0.473281 
0.633941 0.178230 0.440020 
0.634012 0.178250 0.461164 
0.634053 0.188803 0.446244 
0.634153 0.192368 0.464031 
0.634177 0.178297 0.436038 
0.634361 0.178348 0.457145 
0.634421 0.174870 0.411226 
0.634427 0.178367 0.465764 
0.634554 0.192490 0.468650 
0.634688 0.178440 0.453133 
0.634747 0.189010 0.468073 
0.634760 0.178460 0.424132 
0.634816 0.178476 0.470377 
0.634835 0.157639 0.234861 
0.635036 0.189096 0.455399 
0.635072 0.143975 0.144375 
0.635122 0.196214 0.469804 
0.635125 0.189122 0.472700 
0.635152 0.178571 0.457715 
0.635213 0.178588 0.466341 
0.635553 0.157817 0.241599 
0.635658 0.157843 0.238397 
0.635790 0.178750 0.449689 
0.635823 0.157884 0.232005 
0.635943 0.178793 0.458286 
0.636378 0.178915 0.462884 
0.636507 0.164982 0.345960 
0.636535 0.178959 0.421251 
0.636688 0.175495 0.437142 
0.636776 0.172020 0.369406 
0.637476 0.158295 0.292452 
0.637572 0.179251 0.468073 
0.637613 0.179262 0.434256 
0.637746 0.144581 0.175230 
0.637947 0.175842 0.393704 
0.638507 0.158551 0.299832 
0.638521 0.176000 0.434256 
0.638725 0.176056 0.430273 
0.638743 0.179580 0.464605 
0.638771 0.176069 0.455399 
0.638876 0.144838 0.178608 
0.638886 0.158645 0.296548 
0.639381 0.176237 0.447363 
0.639431 0.179774 0.431362 
0.639518 0.179798 0.473862 
0.639806 0.190516 0.476185 
0.639846 0.165848 0.325975 
0.639930 0.179914 0.469804 
0.640393 0.162500 0.315143 
0.640900 0.148746 0.201161 
0.640969 0.148762 0.204326 
0.641024 0.148775 0.207496 
0.641062 0.166163 0.330195 
0.641064 0.176701 0.411508 
0.641086 0.180239 0.475023 
0.641217 0.166203 0.323088 
0.641237 0.180281 0.428460 
0.641243 0.176750 0.399678 
0.641256 0.176754 0.444464 
0.641699 0.145478 0.179397 
0.641720 0.162836 0.312257 
0.642025 0.145552 0.185675 
0.642520 0.159547 0.305212 
0.642576 0.166555 0.320195 
0.642653 0.180679 0.476185 
0.642788 0.177176 0.408602 
0.643810 0.181005 0.442662 
0.643984 0.166920 0.335332 
0.644346 0.181156 0.447242 
0.644501 0.177648 0.405689 
0.644770 0.177722 0.463986 
0.644791 0.163616 0.310211 
0.644832 0.167140 0.346782 
0.645149 0.167222 0.339593 
0.645226 0.163726 0.313963 
0.645306 0.160239 0.278828 
0.645664 0.181526 0.439739 
0.646151 0.167482 0.354929 
0.646219 0.181682 0.444318 
0.646487 0.192506 0.476730 
0.646787 0.167647 0.351548 
0.646884 0.192624 0.463895 
0.647505 0.182043 0.436809 
0.647818 0.175003 0.379667 
0.648079 0.182205 0.441384 
0.648475 0.193097 0.473782 
0.648510 0.164559 0.329956 
0.649530 0.164818 0.323236 
0.649762 0.168418 0.360678 
0.649899 0.164912 0.327034 
0.650403 0.175702 0.385073 
0.650450 0.193686 0.470826 
0.651267 0.147647 0.185206 
0.651279 0.168811 0.357746 
0.651304 0.175945 0.393456 
0.651499 0.179577 0.473209 
0.652486 0.169124 0.365989 
0.652628 0.169161 0.339833 
0.652955 0.176391 0.390509 
0.653946 0.162384 0.286024 
0.655774 0.177152 0.424474 
0.656026 0.170042 0.371813 
0.656140 0.166495 0.322892 
0.657246 0.177550 0.429568 
0.660222 0.181981 0.470692 
0.662196 0.182525 0.467699 
0.662553 0.171733 0.367778 
0.662641 0.171756 0.352572 
0.663545 0.171991 0.372193 
0.663721 0.172036 0.356940 
0.666015 0.179919 0.439520 
0.691763 0.186875 0.460919 
0.464942 0.432796 0.483032 
0.466481 0.434228 0.480256 
0.467424 0.435106 0.476872 
0.468041 0.435680 0.490669 
0.468926 0.436505 0.500540 
0.469403 0.436949 0.483265 
0.469770 0.437289 0.479266 
0.469942 0.437450 0.497128 
0.470769 0.438219 0.489085 
0.473679 0.427557 0.480858 
0.473764 0.450139 0.496954 
0.474043 0.427885 0.476872 
0.474428 0.441626 0.497366 
0.474630 0.428415 0.508602 
0.475332 0.451628 0.494098 
0.475827 0.429495 0.478667 
0.475847 0.429513 0.491887 
0.476051 0.429697 0.483265 
0.476273 0.429898 0.505807 
0.476845 0.430414 0.488480 
0.476856 0.430424 0.506426 
0.477017 0.430569 0.479864 
0.477184 0.430720 0.497740 
0.477429 0.422161 0.480256 
0.477613 0.431107 0.493713 
0.477643 0.422351 0.484848 
0.477670 0.444644 0.514475 
0.477768 0.444735 0.483004 
0.477778 0.418137 0.478451 
0.477907 0.431372 0.503003 
0.478026 0.431480 0.489691 
0.478037 0.427074 0.491887 
0.478044 0.444992 0.505699 
0.478357 0.431779 0.498965 
0.478422 0.431837 0.485672 
0.478445 0.427439 0.487875 
0.478492 0.431900 0.503619 
0.478625 0.423219 0.481460 
0.478697 0.432085 0.512960 
0.478716 0.445617 0.479560 
0.478837 0.427789 0.483867 
0.478929 0.414839 0.481822 
0.478994 0.423545 0.477471 
0.479039 0.427970 0.488480 
0.479433 0.428321 0.484469 
0.479771 0.433055 0.509522 
0.479810 0.428658 0.480462 
0.479822 0.424277 0.482663 
0.479956 0.451374 0.483108 
0.479969 0.428801 0.498352 
0.480118 0.433368 0.500801 
0.480194 0.424607 0.478667 
0.480214 0.424624 0.491887 
0.480222 0.429026 0.507665 
0.480407 0.429192 0.481061 
0.480513 0.416211 0.479052 
0.480559 0.429328 0.498965 
0.480769 0.429515 0.477056 
0.481221 0.425515 0.488480 
0.481416 0.434540 0.506697 
0.481487 0.452814 0.480229 
0.481563 0.425817 0.497740 
0.481736 0.434829 0.497975 
0.481817 0.426042 0.489085 
0.481821 0.426045 0.507046 
0.481869 0.430498 0.504850 
0.481985 0.421818 0.482663 
0.481997 0.426201 0.493713 
0.482178 0.430774 0.496148 
0.482193 0.422000 0.487269 
0.482293 0.426463 0.503003 
0.482651 0.431196 0.514827 
0.482883 0.426984 0.503619 
0.482976 0.422686 0.492496 
0.483090 0.427167 0.512960 
0.483139 0.422829 0.497128 
0.483150 0.431642 0.510760 
0.483186 0.427252 0.494931 
0.483340 0.427389 0.499577 
0.483391 0.423048 0.488480 
0.483677 0.427686 0.513582 
0.483734 0.423349 0.497740 
0.483845 0.450392 0.493626 
0.483874 0.423472 0.502387 
0.484090 0.423661 0.511715 
0.484500 0.451001 0.517164 
0.484531 0.419691 0.491887 
0.484557 0.437375 0.523906 
0.484762 0.428646 0.510141 
0.484807 0.433123 0.507929 
0.484842 0.419960 0.501156 
0.485061 0.415828 0.481460 
0.485295 0.420353 0.497128 
0.485364 0.424775 0.494931 
0.485417 0.451855 0.490737 
0.485438 0.420476 0.501772 
0.485624 0.433852 0.522654 
0.485659 0.420668 0.511092 
0.485766 0.425127 0.508903 
0.486083 0.429814 0.520776 
0.486153 0.421095 0.507046 
0.486181 0.412494 0.484848 
0.486191 0.452575 0.496019 
0.486246 0.425548 0.504850 
0.486260 0.457302 0.526238 
0.486330 0.421249 0.493713 
0.486353 0.452726 0.533295 
0.486357 0.425644 0.509522 
0.486483 0.417047 0.487269 
0.486490 0.421388 0.498352 
0.486572 0.412825 0.480858 
0.486906 0.453241 0.529145 
0.486980 0.453309 0.487839 
0.486983 0.413174 0.490061 
0.487352 0.422135 0.490296 
0.487876 0.418241 0.493104 
0.487928 0.458871 0.523320 
0.488180 0.418501 0.502387 
0.488300 0.418604 0.507046 
0.488367 0.431833 0.518562 
0.488399 0.414375 0.482663 
0.488533 0.454755 0.484931 
0.488609 0.414554 0.487269 
0.488639 0.418895 0.498352 
0.488778 0.414697 0.478667 
0.488861 0.427836 0.521402 
0.488965 0.423531 0.487478 
0.489010 0.459889 0.519780 
0.489271 0.460134 0.506135 
0.489539 0.406807 0.479654 
0.489992 0.402965 0.482427 
0.490154 0.407317 0.480256 
0.490291 0.461094 0.502601 
0.490316 0.442573 0.525410 
0.490380 0.403284 0.478451 
0.490448 0.456538 0.504931 
0.490573 0.407666 0.489452 
0.490658 0.461439 0.516846 
0.490905 0.407942 0.498693 
0.490986 0.408009 0.485453 
0.491613 0.404299 0.479654 
0.491793 0.408680 0.490669 
0.491884 0.462592 0.499659 
0.491980 0.417414 0.499577 
0.492221 0.426352 0.522654 
0.492296 0.462979 0.513903 
0.492442 0.400777 0.491618 
0.492574 0.409329 0.495904 
0.492717 0.418039 0.504850 
0.492757 0.426816 0.518562 
0.493119 0.405537 0.503331 
0.493264 0.405656 0.490061 
0.493281 0.401460 0.483638 
0.493485 0.401626 0.488234 
0.493513 0.431907 0.521675 
0.493582 0.418773 0.519524 
0.493624 0.410201 0.492496 
0.493674 0.401780 0.479654 
0.493678 0.436529 0.528913 
0.493745 0.423272 0.517317 
0.493771 0.441131 0.536189 
0.493898 0.401962 0.484243 
0.493918 0.419059 0.506081 
0.493936 0.410460 0.501772 
0.494087 0.397933 0.482427 
0.494101 0.402127 0.488843 
0.494273 0.437056 0.534301 
0.494392 0.419460 0.502026 
0.494395 0.423830 0.522654 
0.494440 0.402403 0.498078 
0.494441 0.406624 0.509225 
0.494625 0.419658 0.511379 
0.494650 0.398387 0.496231 
0.494730 0.432972 0.527661 
0.494895 0.402773 0.494067 
0.494910 0.407010 0.487269 
0.494914 0.460696 0.533048 
0.494970 0.446774 0.539965 
0.495007 0.411350 0.498352 
0.495100 0.398749 0.479052 
0.495100 0.398749 0.492230 
0.495148 0.411468 0.503003 
0.495267 0.411567 0.507665 
0.495306 0.420236 0.516695 
0.495508 0.403272 0.494679 
0.495649 0.407618 0.510470 
0.495715 0.407672 0.492496 
0.495722 0.399250 0.479654 
0.495750 0.403469 0.486059 
0.495882 0.407809 0.497128 
0.496135 0.447826 0.536424 
0.496150 0.399595 0.488843 
0.496274 0.403895 0.499925 
0.496422 0.421183 0.513237 
0.496475 0.412571 0.508903 
0.496493 0.408312 0.497740 
0.496562 0.404130 0.491278 
0.496637 0.408430 0.502387 
0.496639 0.412707 0.518272 
0.496758 0.408530 0.507046 
0.496768 0.400093 0.489452 
0.496831 0.412866 0.500189 
0.497184 0.439630 0.537447 
0.497719 0.400858 0.499309 
0.497772 0.413648 0.514827 
0.497807 0.400929 0.486059 
0.497810 0.405145 0.515143 
0.497870 0.405194 0.519826 
0.497983 0.396890 0.484243 
0.498287 0.414076 0.510760 
0.498334 0.405572 0.511092 
0.498341 0.463885 0.546439 
0.498363 0.463906 0.541596 
0.498374 0.414148 0.515450 
0.498439 0.414202 0.520150 
0.498451 0.449916 0.538928 
0.498462 0.409931 0.504234 
0.498464 0.401458 0.504569 
0.498795 0.401725 0.495904 
0.498808 0.397547 0.489452 
0.498941 0.406066 0.511715 
0.498946 0.401847 0.500540 
0.499039 0.414701 0.520776 
0.499047 0.401928 0.487269 
0.499076 0.401951 0.505188 
0.499240 0.402083 0.491887 
0.499269 0.389634 0.477247 
0.499282 0.397925 0.503331 
0.499426 0.437082 0.537447 
0.499450 0.406480 0.507665 
0.499454 0.402256 0.483265 
0.499578 0.415149 0.516695 
0.499606 0.398184 0.494679 
0.499631 0.398203 0.481460 
0.499762 0.398308 0.499309 
0.499941 0.406880 0.503619 
0.500008 0.398504 0.508602 
0.500081 0.465505 0.543463 
0.500133 0.390308 0.482427 
0.500163 0.446842 0.538302 
0.500224 0.398676 0.495291 
0.500529 0.390616 0.478451 
0.500535 0.390622 0.491618 
0.500540 0.403131 0.520456 
0.500642 0.403213 0.497740 
0.500668 0.407472 0.508903 
0.500762 0.407548 0.513582 
0.501011 0.403510 0.511715 
0.501064 0.434011 0.532043 
0.501073 0.391041 0.510135 
0.501158 0.391108 0.492230 
0.501277 0.407967 0.509522 
0.501324 0.391237 0.496846 
0.501388 0.391287 0.483638 
0.501621 0.404001 0.512337 
0.501654 0.434522 0.537447 
0.501738 0.399883 0.505807 
0.501812 0.467117 0.540477 
0.501910 0.400020 0.492496 
0.502099 0.430434 0.535559 
0.502221 0.391937 0.488843 
0.502227 0.400273 0.501772 
0.502230 0.404492 0.512960 
0.502304 0.404551 0.517646 
0.502537 0.400519 0.515768 
0.502643 0.392267 0.484848 
0.502706 0.392316 0.502712 
0.502745 0.404906 0.508903 
0.502823 0.392407 0.507357 
0.503028 0.392567 0.494067 
0.503068 0.400943 0.511715 
0.503472 0.392914 0.490061 
0.503518 0.468705 0.547199 
0.503519 0.405530 0.518898 
0.503692 0.427351 0.530165 
0.503809 0.393176 0.499309 
0.503944 0.393282 0.503950 
0.504049 0.469199 0.552699 
0.504164 0.414621 0.523906 
0.504430 0.393661 0.499925 
0.504563 0.393765 0.504569 
0.504752 0.446322 0.545629 
0.505153 0.394226 0.487269 
0.505178 0.437575 0.541223 
0.505261 0.470327 0.544192 
0.505291 0.394333 0.509847 
0.505341 0.406997 0.520776 
0.505565 0.394547 0.483265 
0.505960 0.394855 0.479266 
0.505995 0.416126 0.530525 
0.506061 0.382590 0.482427 
0.506462 0.382893 0.478451 
0.506525 0.395296 0.511092 
0.506665 0.395405 0.520456 
0.506883 0.412529 0.524532 
0.506994 0.471940 0.541175 
0.507040 0.395698 0.507046 
0.507142 0.395777 0.511715 
0.507536 0.396085 0.503003 
0.507542 0.383709 0.488234 
0.507610 0.379697 0.504244 
0.507849 0.430878 0.539335 
0.507912 0.472794 0.476923 
0.508045 0.422185 0.534930 
0.508109 0.380071 0.500235 
0.508226 0.380159 0.487017 
0.508360 0.384328 0.493455 
0.508413 0.380298 0.478451 
0.508419 0.380303 0.491618 
0.508492 0.473335 0.500126 
0.508590 0.380431 0.496231 
0.508648 0.380474 0.483032 
0.508738 0.380541 0.500854 
0.508807 0.384666 0.489452 
0.509052 0.380776 0.479052 
0.509053 0.380777 0.492230 
0.509236 0.384990 0.485453 
0.509391 0.474171 0.482796 
0.509590 0.381179 0.510761 
0.509647 0.385301 0.481460 
0.509852 0.381375 0.497462 
0.509923 0.381428 0.484243 
0.510085 0.474817 0.497090 
0.510116 0.381572 0.506734 
0.510132 0.381584 0.488843 
0.510214 0.381646 0.511387 
0.510319 0.381724 0.493455 
0.510331 0.381733 0.480256 
0.510409 0.385877 0.499925 
0.510483 0.381847 0.498078 
0.510656 0.386064 0.509225 
0.510743 0.382041 0.507357 
0.510768 0.382060 0.489452 
0.510790 0.420069 0.530791 
0.510842 0.475522 0.488696 
0.510971 0.382211 0.480858 
0.510992 0.378169 0.479052 
0.511006 0.374150 0.490394 
0.511038 0.386353 0.500540 
0.511114 0.382319 0.498693 
0.511117 0.415975 0.528913 
0.511170 0.386453 0.505188 
0.511228 0.374312 0.481822 
0.511370 0.382510 0.507980 
0.511403 0.382535 0.490061 
0.511447 0.374473 0.486408 
0.511514 0.386712 0.496516 
0.511585 0.382671 0.494679 
0.511592 0.366602 0.487333 
0.511667 0.476290 0.494045 
0.511706 0.447830 0.550663 
0.511733 0.416477 0.534301 
0.511745 0.382791 0.499309 
0.511996 0.382979 0.508602 
0.512218 0.383145 0.495291 
0.512275 0.375079 0.478451 
0.512336 0.416967 0.534930 
0.512423 0.387400 0.506426 
0.512473 0.383335 0.486664 
0.512511 0.383364 0.504569 
0.512571 0.379337 0.502712 
0.512598 0.421556 0.537447 
0.512671 0.367375 0.483973 
0.512728 0.375410 0.487625 
0.512920 0.375551 0.479052 
0.513062 0.379700 0.498693 
0.513088 0.367674 0.480006 
0.513089 0.375675 0.496846 
0.513140 0.383834 0.505188 
0.513153 0.387952 0.511715 
0.513155 0.375723 0.483638 
0.513309 0.383960 0.491887 
0.513534 0.409285 0.531783 
0.513535 0.380050 0.494679 
0.513786 0.380236 0.486059 
0.513990 0.380387 0.490669 
0.514367 0.436408 0.546258 
0.514786 0.368890 0.477247 
0.514805 0.368904 0.490394 
0.515022 0.385242 0.489085 
0.515137 0.377175 0.503331 
0.515250 0.369223 0.486408 
0.515435 0.369355 0.477849 
0.515518 0.361494 0.478795 
0.515672 0.415317 0.536189 
0.515815 0.428642 0.543111 
0.516413 0.429139 0.543741 
0.516459 0.386317 0.517646 
0.516540 0.370147 0.487625 
0.516685 0.366267 0.490394 
0.516863 0.366393 0.494999 
0.516904 0.378468 0.500540 
0.516970 0.370456 0.483638 
0.517382 0.370751 0.479654 
0.517386 0.378821 0.496516 
0.517545 0.370868 0.497462 
0.517559 0.366887 0.482427 
0.517691 0.370972 0.502093 
0.517953 0.482142 0.552872 
0.518426 0.367501 0.487625 
0.518556 0.482703 0.548555 
0.518662 0.371668 0.494067 
0.518776 0.363779 0.481822 
0.518999 0.363934 0.486408 
0.519002 0.388219 0.524861 
0.519086 0.371972 0.507980 
0.519127 0.483235 0.539325 
0.519271 0.368101 0.479654 
0.519375 0.364198 0.495615 
0.519714 0.483781 0.549780 
0.519839 0.364524 0.478451 
0.520080 0.364693 0.483032 
0.520244 0.372802 0.504569 
0.520247 0.389150 0.526119 
0.520299 0.364847 0.505489 
0.520304 0.484329 0.545459 
0.520306 0.380959 0.512960 
0.520404 0.364920 0.510135 
0.520493 0.364982 0.479052 
0.520698 0.393656 0.523906 
0.520732 0.365150 0.483638 
0.520869 0.389616 0.526749 
0.520884 0.389627 0.531480 
0.520893 0.357373 0.507006 
0.520948 0.365301 0.488234 
0.521141 0.365436 0.492843 
0.521362 0.406875 0.530791 
0.521384 0.365607 0.484243 
0.521388 0.373622 0.501156 
0.521457 0.365659 0.502093 
0.521465 0.485411 0.546676 
0.521474 0.381814 0.509522 
0.521504 0.390090 0.532113 
0.521724 0.420192 0.542482 
0.521976 0.407354 0.531417 
0.521981 0.407358 0.536189 
0.522010 0.416040 0.545400 
0.522041 0.485946 0.542352 
0.522100 0.366109 0.502712 
0.522266 0.374251 0.511092 
0.522344 0.374306 0.493104 
0.522518 0.374431 0.497740 
0.522579 0.358530 0.499616 
0.522591 0.407834 0.532043 
0.522713 0.358621 0.504244 
0.522736 0.391012 0.528637 
0.522784 0.370591 0.505188 
0.522896 0.366667 0.490061 
0.522903 0.374707 0.511715 
0.522984 0.374765 0.516394 
0.523083 0.366798 0.494679 
0.523209 0.395554 0.531154 
0.523436 0.375089 0.507665 
0.523441 0.375092 0.489691 
0.523443 0.387383 0.522654 
0.523546 0.367123 0.490669 
0.523547 0.359193 0.491618 
0.523618 0.375220 0.517020 
0.523722 0.359314 0.496231 
0.523768 0.487554 0.539235 
0.523891 0.367365 0.499925 
0.524002 0.359506 0.487625 
0.524074 0.375546 0.508284 
0.524158 0.383780 0.521402 
0.524378 0.367706 0.495904 
0.524642 0.388270 0.519185 
0.524812 0.372028 0.511715 
0.525045 0.409749 0.539335 
0.525102 0.418504 0.538928 
0.525225 0.392873 0.535909 
0.525315 0.368364 0.505807 
0.525353 0.388796 0.529266 
0.525358 0.384658 0.517940 
0.525425 0.368441 0.510470 
0.525627 0.410203 0.544767 
0.525751 0.360706 0.484848 
0.526174 0.360996 0.480858 
0.526472 0.369175 0.502387 
0.526707 0.369340 0.511715 
0.526788 0.377491 0.520150 
0.526790 0.369397 0.516394 
0.527064 0.361607 0.486059 
0.527117 0.369627 0.503003 
0.527243 0.349958 0.481216 
0.527244 0.369716 0.507665 
0.527422 0.377945 0.520776 
0.527472 0.350109 0.485799 
0.527510 0.411673 0.537050 
0.527967 0.362226 0.513891 
0.528322 0.350674 0.477849 
0.528336 0.350683 0.491006 
0.528407 0.362528 0.505188 
0.528791 0.343247 0.479400 
0.528988 0.351116 0.478451 
0.529028 0.343401 0.483973 
0.529233 0.351278 0.483032 
0.529394 0.371224 0.523602 
0.529570 0.363326 0.501772 
0.529653 0.351558 0.492230 
0.529811 0.363491 0.511092 
0.529842 0.387941 0.531783 
0.529890 0.363545 0.493104 
0.529896 0.351718 0.483638 
0.529980 0.351774 0.501474 
0.530030 0.400711 0.533295 
0.530185 0.396584 0.540971 
0.530485 0.352110 0.497462 
0.530559 0.352159 0.484243 
0.530568 0.344401 0.489781 
0.530760 0.352292 0.506734 
0.530776 0.348406 0.478451 
0.530984 0.352440 0.480256 
0.531025 0.344697 0.485799 
0.531096 0.388860 0.533042 
0.531142 0.352545 0.498078 
0.531259 0.372532 0.520776 
0.531370 0.364561 0.498965 
0.531412 0.352725 0.507357 
0.531462 0.344981 0.481822 
0.531620 0.348960 0.496846 
0.531630 0.352869 0.494067 
0.531688 0.349004 0.483638 
0.531833 0.372934 0.516695 
0.531898 0.372980 0.521402 
0.531908 0.349149 0.488234 
0.531943 0.353077 0.503331 
0.532075 0.345379 0.495615 
0.532130 0.345415 0.482427 
0.532455 0.353417 0.499309 
0.532558 0.345692 0.491618 
0.532760 0.353619 0.490669 
0.532766 0.349712 0.493455 
0.532780 0.341977 0.485799 
0.532812 0.353654 0.513265 
0.532829 0.394329 0.541604 
0.532947 0.353744 0.495291 
0.533009 0.415965 0.547517 
0.533150 0.382050 0.531154 
0.533212 0.353920 0.486664 
0.533219 0.342259 0.481822 
0.533220 0.346122 0.479052 
0.533252 0.353946 0.504569 
0.533421 0.354058 0.491278 
0.533768 0.354288 0.500540 
0.533884 0.346553 0.492843 
0.534020 0.354456 0.509847 
0.534265 0.354618 0.496516 
0.534352 0.346857 0.488843 
0.534413 0.382955 0.532413 
0.534424 0.354724 0.501156 
0.534452 0.374771 0.523906 
0.534560 0.354814 0.505807 
0.534672 0.354889 0.510470 
0.534983 0.343391 0.479052 
0.534984 0.343392 0.492230 
0.535127 0.375244 0.534011 
0.535404 0.355374 0.493104 
0.535411 0.355379 0.515768 
0.535463 0.392057 0.542236 
0.535526 0.347619 0.503331 
0.535579 0.339920 0.495615 
0.535677 0.383861 0.533671 
0.535757 0.375686 0.529895 
0.535869 0.355683 0.507046 
0.535977 0.355754 0.511715 
0.536136 0.348015 0.486059 
0.536365 0.380218 0.532413 
0.536480 0.352150 0.510470 
0.536710 0.356241 0.517020 
0.536768 0.356280 0.521714 
0.536979 0.340808 0.483638 
0.536982 0.380655 0.528287 
0.537024 0.352507 0.506426 
0.537064 0.340862 0.501474 
0.537201 0.340949 0.488234 
0.537363 0.348811 0.500540 
0.537400 0.341075 0.492843 
0.537572 0.385219 0.535559 
0.537617 0.348977 0.509847 
0.538034 0.406762 0.551094 
0.538081 0.341507 0.480256 
0.538161 0.349329 0.505807 
0.538525 0.353492 0.517020 
0.538711 0.357569 0.523602 
0.538755 0.341935 0.480858 
0.538815 0.386109 0.541604 
0.538938 0.377916 0.533042 
0.539759 0.334879 0.483032 
0.539836 0.342622 0.508602 
0.539853 0.350428 0.498352 
0.539986 0.335019 0.487625 
0.540143 0.346703 0.515143 
0.540188 0.335145 0.492230 
0.540325 0.350734 0.517020 
0.540367 0.335256 0.496846 
0.540567 0.408677 0.548775 
0.540668 0.350957 0.503619 
0.540703 0.387462 0.543502 
0.540833 0.379245 0.539705 
0.540847 0.379255 0.534930 
0.540866 0.335566 0.479654 
0.541015 0.331839 0.487017 
0.541036 0.335671 0.497462 
0.541112 0.335718 0.484243 
0.541158 0.343460 0.509847 
0.541214 0.331961 0.478451 
0.541221 0.331965 0.491618 
0.541333 0.387913 0.544134 
0.541454 0.351467 0.508903 
0.541465 0.332115 0.483032 
0.541532 0.335979 0.493455 
0.541556 0.351533 0.513582 
0.541711 0.396631 0.548563 
0.541788 0.336138 0.484848 
0.541792 0.347762 0.503003 
0.542029 0.347914 0.512337 
0.542113 0.351895 0.509522 
0.542204 0.336396 0.494067 
0.542212 0.351959 0.514205 
0.542224 0.336408 0.480858 
0.542233 0.344142 0.501772 
0.542368 0.344228 0.506426 
0.542523 0.336594 0.503331 
0.542567 0.344355 0.515768 
0.542575 0.332796 0.479654 
0.542677 0.384692 0.543502 
0.542682 0.336692 0.490061 
0.542720 0.423543 0.562483 
0.542756 0.380593 0.536818 
0.542904 0.329189 0.478451 
0.542942 0.352433 0.519524 
0.543044 0.333083 0.488843 
0.543045 0.336918 0.499309 
0.543312 0.337083 0.508602 
0.543409 0.337143 0.513265 
0.543587 0.329603 0.479052 
0.543587 0.329603 0.492230 
0.543836 0.329754 0.483638 
0.543905 0.349118 0.509522 
0.544076 0.345312 0.498965 
0.544179 0.333779 0.485453 
0.544182 0.353237 0.516072 
0.544250 0.353282 0.520776 
0.544525 0.337836 0.505188 
0.544538 0.361437 0.529266 
0.544569 0.345625 0.494931 
0.544637 0.381913 0.543502 
0.544642 0.337908 0.509847 
0.544761 0.334136 0.499309 
0.545419 0.330714 0.489452 
0.545515 0.326969 0.483638 
0.545558 0.354131 0.522028 
0.545615 0.330833 0.494067 
0.545791 0.334768 0.513891 
0.545860 0.338664 0.506426 
0.545905 0.382802 0.544767 
0.546363 0.335119 0.509847 
0.546518 0.346862 0.519524 
0.546613 0.335272 0.496516 
0.546635 0.327640 0.480256 
0.546724 0.323906 0.487625 
0.546726 0.323906 0.505489 
0.546902 0.355003 0.528007 
0.546915 0.335458 0.505807 
0.547239 0.331818 0.486664 
0.547280 0.331842 0.504569 
0.547302 0.339559 0.512337 
0.547385 0.339610 0.517020 
0.547616 0.324434 0.479654 
0.547770 0.363582 0.537175 
0.547775 0.363586 0.532413 
0.547783 0.328328 0.490061 
0.547810 0.332164 0.500540 
0.547943 0.324627 0.502093 
0.548119 0.336197 0.502387 
0.548246 0.328606 0.486059 
0.548296 0.328636 0.503950 
0.548423 0.364016 0.533042 
0.548427 0.328715 0.477471 
0.548466 0.324938 0.498078 
0.548550 0.324987 0.484848 
0.548618 0.325028 0.502712 
0.548690 0.328872 0.482061 
0.548783 0.437377 0.568285 
0.548825 0.328953 0.499925 
0.548832 0.317617 0.477849 
0.548858 0.356273 0.529895 
0.549090 0.329112 0.509225 
0.549157 0.332981 0.501772 
0.549334 0.329259 0.495904 
0.549509 0.356696 0.530525 
0.549562 0.314300 0.485799 
0.549778 0.318164 0.483032 
0.549824 0.377221 0.539965 
0.550077 0.333538 0.511715 
0.550137 0.325928 0.490669 
0.550331 0.326042 0.495291 
0.550432 0.329917 0.510470 
0.550504 0.349392 0.528007 
0.550604 0.326204 0.486664 
0.550706 0.314954 0.482427 
0.550776 0.429830 0.565767 
0.550810 0.357540 0.536542 
0.550830 0.333995 0.517020 
0.550899 0.318813 0.492843 
0.550991 0.330251 0.506426 
0.551052 0.326469 0.482663 
0.551142 0.315203 0.478451 
0.551185 0.330368 0.493104 
0.551309 0.334286 0.508284 
0.551381 0.319093 0.488843 
0.551407 0.342105 0.525490 
0.551529 0.330574 0.502387 
0.551533 0.326754 0.514517 
0.552112 0.327098 0.510470 
0.552205 0.330979 0.503003 
0.552338 0.331058 0.507665 
0.552631 0.354719 0.536542 
0.552702 0.316095 0.497462 
0.552725 0.331291 0.498965 
0.552753 0.335161 0.514205 
0.552779 0.316139 0.484243 
0.552875 0.327549 0.515768 
0.553006 0.316269 0.488843 
0.553208 0.316385 0.493455 
0.553388 0.343334 0.527378 
0.553408 0.359227 0.539073 
0.553506 0.363327 0.540971 
0.553894 0.316777 0.494067 
0.553915 0.316789 0.480858 
0.553942 0.355561 0.533042 
0.554012 0.343722 0.523280 
0.554058 0.359648 0.539705 
0.554082 0.332104 0.500189 
0.554825 0.364192 0.537447 
0.554900 0.380704 0.549829 
0.554903 0.317354 0.503950 
0.554950 0.380739 0.544999 
0.555034 0.309940 0.492230 
0.555288 0.310082 0.483638 
0.555330 0.419838 0.568810 
0.555357 0.360492 0.540971 
0.555438 0.317660 0.499925 
0.555731 0.310329 0.479654 
0.555745 0.352719 0.537807 
0.555798 0.340907 0.528007 
0.555875 0.333179 0.520150 
0.555912 0.306712 0.478451 
0.556033 0.344976 0.534644 
0.556158 0.369150 0.545400 
0.556211 0.310597 0.488843 
0.556399 0.353134 0.538440 
0.556415 0.310711 0.493455 
0.556680 0.361350 0.537447 
0.556904 0.310984 0.489452 
0.557092 0.341700 0.524532 
0.557534 0.338060 0.528007 
0.557721 0.353973 0.534930 
0.557731 0.304006 0.483032 
0.557744 0.318979 0.511092 
0.557816 0.334342 0.517317 
0.557882 0.334381 0.522028 
0.557996 0.307862 0.493455 
0.558007 0.346200 0.536542 
0.558068 0.311634 0.486059 
0.558174 0.304247 0.479052 
0.558288 0.330756 0.525490 
0.558487 0.308132 0.489452 
0.558832 0.338847 0.524532 
0.558982 0.312144 0.491278 
0.559018 0.308425 0.503331 
0.559111 0.342938 0.531154 
0.559217 0.312276 0.482663 
0.559219 0.335183 0.523280 
0.559384 0.371291 0.548563 
0.559577 0.305012 0.480256 
0.559654 0.308777 0.486059 
0.559705 0.312548 0.514517 
0.559922 0.335604 0.528637 
0.560176 0.312811 0.505807 
0.560356 0.320473 0.508903 
0.560430 0.343747 0.537175 
0.560589 0.336004 0.529266 
0.560612 0.313055 0.483867 
0.560721 0.313116 0.501772 
0.560751 0.305652 0.490061 
0.560847 0.324570 0.515450 
0.560935 0.309483 0.500540 
0.560977 0.313258 0.511092 
0.560979 0.305776 0.481460 
0.561090 0.344152 0.537807 
0.561411 0.306012 0.477471 
0.561543 0.313575 0.489085 
0.561624 0.295045 0.482427 
0.561660 0.313640 0.511715 
0.561748 0.313689 0.516394 
0.561752 0.313692 0.493713 
0.561819 0.306234 0.499925 
0.561820 0.321310 0.514827 
0.561862 0.295170 0.487017 
0.561896 0.321353 0.519524 
0.561924 0.385523 0.556789 
0.561925 0.306292 0.486664 
0.561937 0.313795 0.498352 
0.561991 0.325232 0.507313 
0.562109 0.325300 0.511998 
0.562115 0.306395 0.478069 
0.562145 0.306412 0.491278 
0.562181 0.340877 0.537175 
0.562299 0.333133 0.529266 
0.562450 0.314081 0.481061 
0.562653 0.299266 0.493455 
0.562775 0.295650 0.479052 
0.562786 0.314268 0.503619 
0.562918 0.314343 0.508284 
0.563034 0.295785 0.483638 
0.563034 0.306897 0.496516 
0.563083 0.306923 0.483265 
0.563323 0.307054 0.487875 
0.563372 0.299648 0.480858 
0.563473 0.314653 0.504234 
0.563482 0.296021 0.479654 
0.563538 0.307171 0.492496 
0.563557 0.307182 0.515143 
0.563571 0.292400 0.478451 
0.563604 0.314726 0.508903 
0.563622 0.299782 0.485453 
0.563728 0.307275 0.497128 
0.563791 0.314830 0.518272 
0.563804 0.299878 0.476872 
0.563847 0.314861 0.522973 
0.563942 0.311142 0.512337 
0.564167 0.342082 0.539073 
0.564176 0.296385 0.493455 
0.564179 0.342089 0.534301 
0.564189 0.296393 0.480256 
0.564225 0.307546 0.479864 
0.564485 0.307687 0.484469 
0.564548 0.300274 0.490669 
0.564586 0.307742 0.502387 
0.564699 0.315337 0.500801 
0.564720 0.307816 0.489085 
0.564725 0.307818 0.507046 
0.564850 0.315421 0.505466 
0.564896 0.296764 0.480858 
0.564921 0.300472 0.499925 
0.565117 0.308032 0.498352 
0.565148 0.296896 0.485453 
0.565191 0.375145 0.554258 
0.565246 0.350691 0.543502 
0.565374 0.297015 0.490061 
0.565487 0.300774 0.482663 
0.565525 0.308254 0.512337 
0.565628 0.308310 0.494322 
0.565677 0.327365 0.529266 
0.565921 0.339200 0.534301 
0.565949 0.301020 0.491887 
0.565952 0.293636 0.484848 
0.565970 0.308497 0.503619 
0.566104 0.308570 0.508284 
0.566143 0.301123 0.496516 
0.566181 0.293755 0.489452 
0.566212 0.308629 0.512960 
0.566276 0.297488 0.495291 
0.566320 0.327738 0.525158 
0.566456 0.301289 0.505807 
0.566557 0.297636 0.486664 
0.566633 0.301384 0.479266 
0.566748 0.297737 0.478069 
0.566779 0.297753 0.491278 
0.566900 0.309003 0.513582 
0.566981 0.309048 0.518272 
0.567008 0.301583 0.501772 
0.567150 0.301658 0.506426 
0.567237 0.339989 0.540338 
0.567266 0.301720 0.511092 
0.567354 0.309251 0.504850 
0.567416 0.298088 0.509847 
0.567483 0.309321 0.509522 
0.567676 0.298224 0.496516 
0.567724 0.298250 0.483265 
0.567839 0.302024 0.489085 
0.567989 0.324838 0.525158 
0.568018 0.324854 0.529895 
0.568566 0.340785 0.541604 
0.568648 0.302455 0.512337 
0.568685 0.298754 0.506426 
0.568735 0.302501 0.517020 
0.568801 0.298816 0.511092 
0.568925 0.287833 0.484848 
0.569075 0.298959 0.497740 
0.569282 0.310302 0.502026 
0.569635 0.288192 0.485453 
0.569648 0.310502 0.516072 
0.569938 0.299412 0.503003 
0.570095 0.288424 0.481460 
0.570187 0.299543 0.512337 
0.570241 0.310825 0.511998 
0.570301 0.337873 0.541604 
0.570322 0.295903 0.511092 
0.570335 0.310876 0.516695 
0.570352 0.378571 0.559320 
0.570375 0.330084 0.538440 
0.570405 0.310914 0.521402 
0.570475 0.299695 0.498965 
0.570571 0.288666 0.490669 
0.570632 0.318650 0.529266 
0.570635 0.299779 0.503619 
0.570711 0.326395 0.537175 
0.570762 0.296131 0.502387 
0.570807 0.288785 0.482061 
0.570854 0.303628 0.523602 
0.571125 0.281648 0.484243 
0.571249 0.289008 0.478069 
0.571299 0.296410 0.498352 
0.571465 0.300215 0.508903 
0.571478 0.289124 0.495904 
0.571490 0.300228 0.490901 
0.571534 0.285492 0.494679 
0.571540 0.303993 0.524231 
0.571562 0.285506 0.481460 
0.571655 0.300314 0.518272 
0.571695 0.300335 0.495540 
0.571799 0.289287 0.505188 
0.571813 0.285631 0.486059 
0.571813 0.311682 0.527378 
0.571991 0.319409 0.535276 
0.572002 0.285726 0.477471 
0.572040 0.285744 0.490669 
0.572177 0.304332 0.520150 
0.572222 0.315710 0.524532 
0.572296 0.296927 0.508284 
0.572298 0.282226 0.480858 
0.572354 0.289568 0.501156 
0.572496 0.312054 0.528007 
0.572507 0.312060 0.532745 
0.572526 0.285987 0.486664 
0.572667 0.319787 0.531154 
0.572719 0.286084 0.478069 
0.573016 0.278947 0.480256 
0.573343 0.320164 0.536542 
0.573346 0.320165 0.531783 
0.573403 0.290098 0.493104 
0.573551 0.301311 0.510760 
0.573651 0.301363 0.515450 
0.573715 0.275667 0.479654 
0.573875 0.297747 0.518898 
0.573989 0.279420 0.485453 
0.574189 0.286818 0.515143 
0.574344 0.301727 0.516072 
0.574404 0.283265 0.495904 
0.574420 0.286933 0.483867 
0.574886 0.287166 0.515768 
0.574894 0.279861 0.477471 
0.574942 0.302041 0.511998 
0.574948 0.283533 0.514517 
0.575005 0.290909 0.498965 
0.575107 0.302128 0.521402 
0.575134 0.287290 0.484469 
0.575163 0.283639 0.483265 
0.575378 0.287412 0.507046 
0.575413 0.291115 0.512960 
0.575628 0.283868 0.492496 
0.575908 0.313914 0.531154 
0.576194 0.287820 0.512337 
0.576254 0.284177 0.511092 
0.576330 0.284215 0.479864 
0.576359 0.280574 0.491887 
0.576536 0.345563 0.549196 
0.576556 0.280670 0.496516 
0.576568 0.314273 0.527035 
0.576798 0.288121 0.490296 
0.576836 0.284464 0.489085 
0.576845 0.277171 0.486664 
0.576894 0.288169 0.512960 
0.576956 0.284523 0.511715 
0.576979 0.288212 0.517646 
0.577040 0.277265 0.478069 
0.577314 0.277397 0.482663 
0.577352 0.288398 0.504234 
0.577399 0.322429 0.540338 
0.577545 0.284814 0.507665 
0.577586 0.292214 0.519524 
0.577638 0.292241 0.524231 
0.577746 0.284913 0.517020 
0.577762 0.277612 0.478667 
0.577868 0.303579 0.523906 
0.577947 0.315025 0.537807 
0.577950 0.285013 0.498965 
0.577955 0.315029 0.533042 
0.578057 0.288750 0.504850 
0.578112 0.285093 0.503619 
0.578137 0.330642 0.539335 
0.578283 0.281511 0.489085 
0.578427 0.288935 0.496148 
0.578496 0.281615 0.480462 
0.578697 0.278061 0.497128 
0.578760 0.281743 0.485071 
0.578891 0.289167 0.510141 
0.578953 0.285508 0.508903 
0.578974 0.274559 0.487269 
0.579125 0.289283 0.524231 
0.579137 0.289290 0.496757 
0.579307 0.315766 0.539073 
0.579319 0.315773 0.534301 
0.579446 0.274783 0.483265 
0.579467 0.289454 0.506081 
0.579526 0.285791 0.504850 
0.579653 0.282178 0.477056 
0.579898 0.274997 0.479266 
0.579931 0.278654 0.493713 
0.579940 0.304667 0.525783 
0.580022 0.289732 0.502026 
0.580089 0.293481 0.507929 
0.580193 0.278780 0.485071 
0.580287 0.278825 0.503003 
0.580369 0.293623 0.522028 
0.580515 0.282597 0.513582 
0.580622 0.275341 0.479864 
0.580655 0.305043 0.531154 
0.580729 0.290085 0.502638 
0.581135 0.279233 0.508284 
0.581218 0.282940 0.514205 
0.581247 0.279286 0.512960 
0.581343 0.305404 0.531783 
0.581347 0.316878 0.540971 
0.581533 0.283093 0.500801 
0.581609 0.294250 0.513856 
0.581611 0.275810 0.485071 
0.581688 0.283168 0.505466 
0.581753 0.320969 0.542869 
0.581822 0.309462 0.538440 
0.581952 0.279625 0.513582 
0.582031 0.305766 0.532413 
0.582065 0.276025 0.494322 
0.582076 0.279685 0.495540 
0.582260 0.279773 0.500189 
0.582396 0.294648 0.519185 
0.582397 0.283513 0.506081 
0.582418 0.279849 0.504850 
0.582460 0.321359 0.538706 
0.582524 0.283575 0.510760 
0.582701 0.283662 0.520150 
0.582748 0.272708 0.480462 
0.582751 0.283686 0.524861 
0.583129 0.276530 0.504234 
0.583209 0.262095 0.477471 
0.583258 0.280253 0.510141 
0.583302 0.280274 0.492112 
0.583319 0.265738 0.478667 
0.583386 0.317990 0.542869 
0.583397 0.306483 0.538440 
0.583913 0.273253 0.477056 
0.584155 0.334084 0.549829 
0.584222 0.280716 0.497366 
0.584549 0.280873 0.506697 
0.584674 0.280933 0.511379 
0.584737 0.280963 0.493322 
0.584768 0.307203 0.539705 
0.584788 0.277317 0.514827 
0.584805 0.284686 0.522028 
0.585112 0.277470 0.501414 
0.585393 0.277603 0.510760 
0.585453 0.307563 0.540338 
0.585471 0.307573 0.535559 
0.585495 0.277652 0.515450 
0.585550 0.281354 0.521402 
