# .PCD v.7 - Point Cloud Data file format
VERSION .7
FIELDS x y z
SIZE 4 4 4
TYPE F F F
COUNT 1 1 1
WIDTH 1543
HEIGHT 1
POINTS 1543
DATA ascii
-0.498714 -0.445547 0.040902 
-0.498699 -0.431963 0.040352 
-0.498672 -0.431940 0.075166 
-0.498561 -0.431843 0.043231 
-0.498532 -0.372907 0.065434 
-0.498483 -0.431775 0.057696 
-0.498475 -0.414232 0.070980 
-0.498445 -0.483383 0.030315 
-0.498414 -0.431716 0.046108 
-0.498350 -0.440661 0.031953 
-0.498324 -0.440638 0.061122 
-0.498301 -0.431618 0.031665 
-0.498272 -0.445152 0.049652 
-0.498241 -0.440564 0.034855 
-0.498232 -0.414031 0.073808 
-0.498196 -0.468528 0.038834 
-0.498195 -0.436005 0.072505 
-0.498191 -0.431523 0.034541 
-0.498122 -0.440459 0.037757 
-0.498119 -0.440457 0.064024 
-0.498105 -0.445003 0.052567 
-0.498073 -0.431420 0.037416 
-0.498067 -0.468407 0.041817 
-0.498039 -0.401116 0.084189 
-0.498003 -0.422524 0.080189 
-0.497999 -0.356861 0.053600 
-0.497994 -0.440346 0.040657 
-0.497979 -0.463549 0.047573 
-0.497959 -0.372479 0.062617 
-0.497945 -0.431309 0.040291 
-0.497914 -0.435759 0.084174 
-0.497905 -0.440267 0.066925 
-0.497886 -0.431258 0.083795 
-0.497858 -0.388532 0.066375 
-0.497807 -0.431190 0.043165 
-0.497768 -0.435631 0.057871 
-0.497748 -0.400882 0.086978 
-0.497731 -0.422294 0.083038 
-0.497633 -0.435513 0.087060 
-0.497605 -0.431015 0.086669 
-0.497573 -0.435460 0.060756 
-0.497553 -0.439956 0.049355 
-0.497515 -0.409152 0.070545 
-0.497493 -0.439903 0.034803 
-0.497478 -0.422078 0.068570 
-0.497451 -0.422055 0.085885 
-0.497448 -0.400640 0.089766 
-0.497439 -0.435343 0.081164 
-0.497437 -0.439853 0.081530 
-0.497437 -0.430869 0.034489 
-0.497416 -0.448982 0.035117 
-0.497396 -0.463006 0.044539 
-0.497387 -0.439809 0.052253 
-0.497385 -0.356421 0.061615 
-0.497379 -0.435290 0.052018 
-0.497375 -0.439798 0.037700 
-0.497369 -0.435282 0.063641 
-0.497342 -0.435258 0.089945 
-0.497318 -0.430767 0.037360 
-0.497303 -0.448880 0.052724 
-0.497297 -0.388094 0.063519 
-0.497211 -0.439654 0.055149 
-0.497203 -0.435137 0.054901 
-0.497189 -0.356280 0.053513 
-0.497160 -0.421809 0.088731 
-0.497155 -0.435095 0.066524 
-0.497128 -0.448722 0.055646 
-0.497093 -0.462723 0.050467 
-0.497032 -0.448636 0.043885 
-0.497026 -0.439490 0.058045 
-0.497018 -0.434975 0.057783 
-0.497001 -0.444017 0.058306 
-0.496994 -0.356141 0.056181 
-0.496974 -0.408707 0.084711 
-0.496954 -0.439427 0.078514 
-0.496945 -0.359966 0.064493 
-0.496943 -0.448555 0.058568 
-0.496939 -0.371716 0.065225 
-0.496927 -0.462569 0.053430 
-0.496885 -0.448503 0.046806 
-0.496844 -0.472067 0.029922 
-0.496790 -0.355995 0.058848 
-0.496782 -0.430303 0.060390 
-0.496751 -0.462406 0.056392 
-0.496748 -0.448379 0.061488 
-0.496693 -0.439196 0.081408 
-0.496666 -0.462326 0.044473 
-0.496657 -0.430194 0.080677 
-0.496640 -0.439149 0.052174 
-0.496612 -0.434619 0.037473 
-0.496608 -0.443666 0.037813 
-0.496595 -0.439108 0.090215 
-0.496577 -0.355842 0.061515 
-0.496565 -0.430115 0.089405 
-0.496557 -0.448206 0.037983 
-0.496545 -0.448195 0.064408 
-0.496519 -0.462189 0.047434 
-0.496484 -0.434507 0.040352 
-0.496465 -0.438994 0.055067 
-0.496429 -0.448091 0.040902 
-0.496422 -0.438956 0.084300 
-0.496415 -0.438949 0.066724 
-0.496408 -0.429979 0.054570 
-0.496386 -0.429960 0.083543 
-0.496368 -0.421137 0.036963 
-0.496366 -0.371287 0.062416 
-0.496365 -0.429941 0.066123 
-0.496363 -0.462044 0.050393 
-0.496347 -0.434387 0.043231 
-0.496331 -0.448003 0.067326 
-0.496314 -0.491264 0.061095 
-0.496292 -0.447967 0.043819 
-0.496290 -0.387308 0.066166 
-0.496280 -0.438830 0.057958 
-0.496240 -0.421029 0.039803 
-0.496210 -0.371170 0.040615 
-0.496200 -0.434259 0.046108 
-0.496192 -0.438752 0.069615 
-0.496184 -0.420980 0.065522 
-0.496142 -0.438708 0.087191 
-0.496109 -0.447802 0.070242 
-0.496103 -0.420912 0.042642 
-0.496086 -0.438659 0.060848 
-0.496074 -0.434149 0.060573 
-0.496064 -0.443180 0.061122 
-0.496063 -0.371061 0.043318 
-0.496044 -0.434122 0.048985 
-0.496028 -0.367094 0.048565 
-0.495961 -0.420791 0.068361 
-0.495959 -0.438547 0.072505 
-0.495921 -0.443052 0.081652 
-0.495910 -0.429547 0.071851 
-0.495882 -0.438478 0.063737 
-0.495865 -0.475985 0.030009 
-0.495864 -0.391072 0.066375 
-0.495861 -0.442998 0.064024 
-0.495852 -0.438452 0.090080 
-0.495826 -0.429474 0.063161 
-0.495816 -0.429466 0.089271 
-0.495782 -0.370850 0.059615 
-0.495766 -0.475890 0.033008 
-0.495718 -0.438333 0.075393 
-0.495712 -0.399242 0.066897 
-0.495674 -0.433799 0.083795 
-0.495668 -0.429338 0.074713 
-0.495657 -0.475785 0.036006 
-0.495651 -0.442811 0.084553 
-0.495649 -0.420527 0.088461 
-0.495648 -0.447386 0.055481 
-0.495638 -0.420517 0.062587 
-0.495636 -0.429310 0.083417 
-0.495607 -0.420491 0.036906 
-0.495593 -0.447336 0.067225 
-0.495539 -0.475672 0.039004 
-0.495480 -0.399055 0.069674 
-0.495479 -0.420383 0.039742 
-0.495467 -0.461210 0.053273 
-0.495464 -0.447220 0.058394 
-0.495447 -0.438093 0.069511 
-0.495417 -0.429120 0.077574 
-0.495412 -0.475550 0.042001 
-0.495398 -0.429103 0.045829 
-0.495371 -0.442561 0.087452 
-0.495357 -0.429068 0.086277 
-0.495342 -0.420267 0.042577 
-0.495293 -0.461048 0.056226 
-0.495270 -0.447045 0.061305 
-0.495215 -0.437888 0.072396 
-0.495188 -0.370406 0.056822 
-0.495082 -0.442302 0.090349 
-0.495067 -0.446862 0.064216 
-0.494973 -0.437675 0.075279 
-0.494965 -0.460743 0.032480 
-0.494938 -0.398618 0.066793 
-0.494893 -0.419886 0.088327 
-0.494879 -0.419874 0.062491 
-0.494846 -0.419845 0.036850 
-0.494785 -0.465320 0.032624 
-0.494773 -0.370095 0.062216 
-0.494760 -0.479809 0.033104 
-0.494739 -0.460532 0.038380 
-0.494738 -0.358367 0.050761 
-0.494723 -0.437453 0.078162 
-0.494718 -0.419737 0.039681 
-0.494701 -0.441962 0.078514 
-0.494664 -0.446498 0.046596 
-0.494652 -0.479704 0.036111 
-0.494611 -0.460413 0.041329 
-0.494582 -0.419621 0.042511 
-0.494550 -0.369929 0.064911 
-0.494534 -0.479590 0.039117 
-0.494517 -0.484505 0.048410 
-0.494508 -0.446357 0.049504 
-0.494488 -0.428315 0.048614 
-0.494474 -0.460286 0.044277 
-0.494466 -0.369866 0.043179 
-0.494444 -0.419505 0.068152 
-0.494407 -0.479466 0.042123 
-0.494362 -0.484353 0.051430 
-0.494343 -0.446208 0.052410 
-0.494328 -0.460150 0.047224 
-0.494310 -0.369749 0.045872 
-0.494197 -0.484191 0.054450 
-0.494173 -0.460006 0.050171 
-0.494171 -0.441489 0.084300 
-0.494164 -0.441482 0.066724 
-0.494159 -0.385646 0.063118 
-0.494022 -0.484020 0.057468 
-0.494008 -0.459852 0.053116 
-0.493976 -0.369499 0.062116 
-0.493951 -0.483950 0.045324 
-0.493945 -0.357793 0.061414 
-0.493942 -0.441284 0.069615 
-0.493908 -0.419049 0.065222 
-0.493892 -0.441239 0.087191 
-0.493826 -0.483828 0.030184 
-0.493805 -0.483807 0.048340 
-0.493792 -0.445711 0.061122 
-0.493711 -0.441077 0.072505 
-0.493675 -0.418852 0.045271 
-0.493649 -0.483655 0.051356 
-0.493630 -0.441005 0.037587 
-0.493592 -0.445530 0.037757 
-0.493589 -0.445528 0.064024 
-0.493576 -0.410161 0.064620 
-0.493569 -0.427520 0.088866 
-0.493568 -0.464176 0.044408 
-0.493565 -0.488543 0.027285 
-0.493501 -0.483509 0.039231 
-0.493470 -0.440862 0.075393 
-0.493465 -0.445416 0.040657 
-0.493457 -0.459339 0.061946 
-0.493422 -0.464039 0.047364 
-0.493389 -0.397371 0.066584 
-0.493357 -0.427335 0.065723 
-0.493354 -0.409977 0.067420 
-0.493200 -0.440621 0.069511 
-0.493165 -0.427170 0.077221 
-0.493156 -0.445136 0.069824 
-0.493150 -0.459053 0.041207 
-0.493140 -0.405554 0.067106 
-0.493135 -0.427144 0.068570 
-0.493112 -0.483128 0.030140 
-0.493104 -0.459011 0.055977 
-0.493100 -0.478200 0.039004 
-0.493028 -0.445021 0.049355 
-0.493019 -0.427043 0.059933 
-0.492973 -0.478077 0.042001 
-0.492925 -0.444928 0.072722 
-0.492921 -0.458840 0.058916 
-0.492906 -0.426945 0.080067 
-0.492904 -0.426944 0.071416 
-0.492865 -0.440322 0.089945 
-0.492728 -0.458660 0.061854 
-0.492713 -0.368554 0.045724 
-0.492684 -0.444711 0.075619 
-0.492664 -0.426736 0.074260 
-0.492661 -0.482687 0.042184 
-0.492609 -0.477723 0.032960 
-0.492590 -0.458532 0.073702 
-0.492545 -0.356779 0.058561 
-0.492541 -0.463210 0.050245 
-0.492526 -0.458472 0.064791 
-0.492501 -0.477618 0.035954 
-0.492495 -0.463166 0.035431 
-0.492435 -0.444486 0.078514 
-0.492423 -0.487413 0.054528 
-0.492395 -0.472654 0.044735 
-0.492382 -0.426491 0.045550 
-0.492376 -0.463055 0.053194 
-0.492358 -0.492358 0.048689 
-0.492343 -0.400696 0.063919 
-0.492314 -0.458275 0.067726 
-0.492251 -0.462937 0.041329 
-0.492250 -0.472514 0.047713 
-0.492249 -0.487241 0.057551 
-0.492203 -0.492203 0.051727 
-0.492203 -0.462892 0.056143 
-0.492176 -0.444252 0.081408 
-0.492153 -0.417561 0.045132 
-0.492133 -0.356480 0.053164 
-0.492125 -0.430693 0.062970 
-0.492122 -0.400516 0.066688 
-0.492093 -0.458069 0.070660 
-0.492075 -0.482112 0.039117 
-0.492039 -0.492039 0.054764 
-0.491966 -0.379903 0.065329 
-0.491960 -0.387993 0.065852 
-0.491941 -0.356341 0.055815 
-0.491914 -0.430508 0.065823 
-0.491907 -0.444010 0.084300 
-0.491900 -0.444003 0.066724 
-0.491815 -0.457811 0.038153 
-0.491750 -0.367834 0.048330 
-0.491739 -0.356195 0.058465 
-0.491693 -0.430315 0.068674 
-0.491650 -0.462372 0.053116 
-0.491630 -0.443759 0.087191 
-0.491623 -0.457632 0.076524 
-0.491610 -0.425822 0.085624 
-0.491587 -0.481634 0.033056 
-0.491577 -0.367704 0.051009 
-0.491574 -0.457586 0.085436 
-0.491479 -0.481528 0.036059 
-0.491449 -0.443596 0.072505 
-0.491448 -0.462182 0.076864 
-0.491309 -0.425562 0.051154 
-0.491296 -0.457328 0.088365 
-0.491274 -0.466775 0.056309 
-0.491235 -0.481289 0.042062 
-0.491209 -0.443380 0.075393 
-0.491199 -0.461948 0.079807 
-0.491171 -0.443345 0.084174 
-0.491136 -0.425412 0.053990 
-0.491091 -0.466601 0.059265 
-0.491022 -0.383197 0.062717 
-0.490969 -0.471285 0.068528 
-0.490968 -0.391299 0.063218 
-0.490963 -0.461726 0.073811 
-0.490953 -0.425253 0.056825 
-0.490918 -0.429636 0.085885 
-0.490899 -0.466419 0.062220 
-0.490894 -0.443095 0.087060 
-0.490873 -0.416475 0.064821 
-0.490835 -0.403659 0.066793 
-0.490748 -0.471073 0.071497 
-0.490745 -0.433936 0.080433 
-0.490733 -0.456804 0.058655 
-0.490702 -0.442922 0.081164 
-0.490656 -0.470985 0.050541 
-0.490631 -0.429385 0.088731 
-0.490628 -0.442854 0.037530 
-0.490607 -0.442836 0.089945 
-0.490543 -0.475720 0.047782 
-0.490519 -0.470853 0.074464 
-0.490510 -0.395053 0.063418 
-0.490492 -0.470827 0.053508 
-0.490477 -0.433699 0.083291 
-0.490401 -0.390847 0.060382 
-0.490281 -0.480354 0.060049 
-0.490280 -0.470623 0.077430 
-0.490228 -0.456333 0.040963 
-0.490217 -0.461025 0.082627 
-0.490203 -0.366677 0.058944 
-0.490202 -0.442471 0.069406 
-0.490187 -0.485199 0.042184 
-0.490136 -0.470486 0.059439 
-0.490051 -0.485065 0.045193 
-0.490031 -0.470385 0.080395 
-0.489976 -0.465542 0.065078 
-0.489972 -0.475166 0.044735 
-0.489965 -0.442257 0.081042 
-0.489965 -0.424398 0.048170 
-0.489945 -0.470302 0.062403 
-0.489924 -0.489924 0.054528 
-0.489920 -0.456047 0.079219 
-0.489907 -0.484922 0.048201 
-0.489877 -0.465448 0.041329 
-0.489870 -0.475067 0.059701 
-0.489842 -0.460672 0.058829 
-0.489825 -0.378249 0.062316 
-0.489812 -0.455946 0.061488 
-0.489752 -0.484769 0.051208 
-0.489751 -0.489751 0.057551 
-0.489751 -0.479835 0.056971 
-0.489734 -0.442048 0.075166 
-0.489681 -0.489681 0.045389 
-0.489673 -0.474876 0.050689 
-0.489662 -0.455807 0.082139 
-0.489611 -0.455759 0.064408 
-0.489600 -0.469971 0.056392 
-0.489597 -0.465181 0.047224 
-0.489569 -0.489569 0.060572 
-0.489569 -0.479657 0.059962 
-0.489486 -0.441824 0.078044 
-0.489446 -0.479536 0.032912 
-0.489443 -0.465035 0.050171 
-0.489378 -0.489378 0.063593 
-0.489377 -0.479469 0.062952 
-0.489339 -0.479431 0.035902 
-0.489337 -0.474550 0.056640 
-0.489292 -0.504538 0.055313 
-0.489279 -0.464880 0.053116 
-0.489279 -0.464880 0.038324 
-0.489267 -0.474482 0.068628 
-0.489263 -0.437103 0.071851 
-0.489177 -0.479272 0.065941 
-0.489136 -0.441508 0.089675 
-0.489063 -0.499169 0.076533 
-0.489044 -0.464656 0.067927 
-0.489026 -0.469420 0.065270 
-0.489024 -0.436890 0.074713 
-0.489018 -0.464631 0.044212 
-0.489001 -0.365777 0.053426 
-0.488936 -0.455131 0.082017 
-0.488865 -0.488865 0.060485 
-0.488824 -0.498926 0.079581 
-0.488817 -0.478920 0.047852 
-0.488777 -0.436669 0.077574 
-0.488750 -0.401944 0.063719 
-0.488669 -0.454882 0.084931 
-0.488663 -0.478769 0.050838 
-0.488633 -0.483661 0.045062 
-0.488609 -0.365484 0.058753 
-0.488577 -0.498673 0.082628 
-0.488531 -0.401764 0.066479 
-0.488517 -0.498612 0.036582 
-0.488500 -0.478609 0.053822 
-0.488489 -0.483518 0.048061 
-0.488480 -0.459391 0.043950 
-0.488453 -0.454681 0.070138 
-0.488401 -0.498493 0.039627 
-0.488393 -0.454626 0.087843 
-0.488384 -0.478495 0.041817 
-0.488336 -0.459255 0.046876 
-0.488335 -0.483366 0.051060 
-0.488333 -0.473577 0.071497 
-0.488305 -0.459226 0.079337 
-0.488301 -0.483332 0.036006 
-0.488275 -0.498365 0.042672 
-0.488249 -0.478363 0.044800 
-0.488229 -0.459155 0.088235 
-0.488225 -0.454469 0.073049 
-0.488196 -0.414204 0.047577 
-0.488186 -0.393180 0.063118 
-0.488184 -0.483217 0.039004 
-0.488182 -0.459110 0.049800 
-0.488172 -0.483205 0.054058 
-0.488108 -0.454360 0.090754 
-0.488105 -0.473355 0.074464 
-0.488012 -0.365038 0.055998 
-0.487987 -0.454247 0.075958 
-0.487955 -0.478075 0.062769 
-0.487912 -0.478034 0.035797 
-0.487906 -0.473162 0.056474 
-0.487867 -0.473124 0.077430 
-0.487861 -0.361050 0.061114 
-0.487847 -0.458795 0.055646 
-0.487812 -0.364888 0.058657 
-0.487796 -0.477920 0.038777 
-0.487788 -0.477912 0.053744 
-0.487769 -0.487769 0.066420 
-0.487755 -0.477879 0.065749 
-0.487750 -0.422479 0.059292 
-0.487698 -0.482735 0.032960 
-0.487665 -0.458624 0.058568 
-0.487638 -0.463320 0.076638 
-0.487616 -0.477743 0.056723 
-0.487602 -0.364731 0.061314 
-0.487550 -0.422306 0.062107 
-0.487545 -0.477674 0.068728 
-0.487509 -0.380456 0.056822 
-0.487489 -0.440022 0.083543 
-0.487475 -0.482515 0.038947 
-0.487442 -0.497515 0.045650 
-0.487434 -0.477565 0.059701 
-0.487423 -0.400852 0.060765 
-0.487413 -0.467871 0.076977 
-0.487391 -0.463085 0.079572 
-0.487383 -0.463078 0.070660 
-0.487383 -0.453685 0.090619 
-0.487362 -0.472635 0.053430 
-0.487333 -0.472607 0.065366 
-0.487309 -0.380300 0.059520 
-0.487244 -0.376256 0.064702 
-0.487214 -0.364441 0.055907 
-0.487214 -0.439773 0.086407 
-0.487155 -0.462861 0.073593 
-0.487119 -0.487119 0.039117 
-0.487059 -0.467532 0.050171 
-0.487009 -0.472293 0.059352 
-0.486994 -0.486994 0.042123 
-0.486963 -0.472247 0.047434 
-0.486933 -0.467411 0.073920 
-0.486929 -0.439516 0.089271 
-0.486915 -0.379992 0.054036 
-0.486869 -0.462589 0.085436 
-0.486861 -0.477003 0.077657 
-0.486859 -0.486859 0.045127 
-0.486845 -0.392101 0.060190 
-0.486819 -0.472108 0.062312 
-0.486809 -0.472099 0.050393 
-0.486769 -0.453114 0.072831 
-0.486749 -0.457763 0.061397 
-0.486715 -0.486715 0.048131 
-0.486636 -0.467126 0.044212 
-0.486619 -0.471914 0.065270 
-0.486616 -0.476763 0.071601 
-0.486614 -0.476762 0.080630 
-0.486583 -0.481632 0.056888 
-0.486562 -0.486562 0.051134 
-0.486532 -0.476682 0.062586 
-0.486492 -0.466988 0.047155 
-0.486488 -0.452852 0.066925 
-0.486449 -0.466946 0.079807 
-0.486444 -0.466941 0.070870 
-0.486410 -0.471711 0.068227 
-0.486388 -0.476540 0.074573 
-0.486361 -0.486361 0.066229 
-0.486358 -0.476511 0.083601 
-0.486337 -0.457375 0.084931 
-0.486286 -0.452664 0.078632 
-0.486269 -0.452649 0.069824 
-0.486212 -0.481265 0.062861 
-0.486193 -0.466701 0.082749 
-0.486177 -0.466685 0.053038 
-0.486122 -0.457173 0.070138 
-0.486096 -0.375370 0.059136 
-0.486093 -0.476251 0.086572 
-0.486051 -0.466564 0.041207 
-0.486030 -0.452425 0.081530 
-0.486030 -0.496074 0.069930 
-0.486012 -0.481067 0.065845 
-0.486005 -0.466521 0.055977 
-0.485944 -0.466462 0.067826 
-0.485931 -0.471247 0.053273 
-0.485928 -0.466446 0.085688 
-0.485905 -0.476067 0.080512 
-0.485824 -0.466347 0.058916 
-0.485823 -0.485823 0.036006 
-0.485818 -0.475982 0.089540 
-0.485812 -0.495851 0.072960 
-0.485803 -0.480861 0.068828 
-0.485771 -0.412146 0.061340 
-0.485707 -0.485707 0.039004 
-0.485695 -0.461474 0.082261 
-0.485670 -0.359428 0.058178 
-0.485654 -0.466183 0.088626 
-0.485649 -0.475816 0.083480 
-0.485634 -0.466164 0.061854 
-0.485582 -0.485582 0.042001 
-0.485541 -0.495575 0.085186 
-0.485478 -0.470807 0.071079 
-0.485441 -0.475613 0.077430 
-0.485435 -0.465973 0.064791 
-0.485389 -0.470721 0.062129 
-0.485367 -0.403339 0.060765 
-0.485340 -0.456438 0.087713 
-0.485250 -0.470587 0.074029 
-0.485195 -0.475371 0.071392 
-0.485156 -0.460962 0.088104 
-0.485155 -0.411623 0.047280 
-0.485150 -0.382622 0.062216 
-0.485132 -0.485132 0.090323 
-0.485117 -0.485117 0.035954 
-0.485099 -0.456211 0.064120 
-0.485096 -0.480160 0.068728 
-0.485057 -0.456171 0.090619 
-0.485014 -0.470357 0.076977 
-0.484957 -0.500068 0.057882 
-0.484891 -0.456015 0.067025 
-0.484800 -0.402869 0.057920 
-0.484776 -0.499882 0.060921 
-0.484768 -0.470119 0.079925 
-0.484761 -0.465326 0.082505 
-0.484704 -0.484704 0.087203 
-0.484687 -0.470041 0.088887 
-0.484586 -0.499686 0.063959 
-0.484577 -0.382170 0.059424 
-0.484513 -0.469872 0.082870 
-0.484505 -0.494517 0.048410 
-0.484497 -0.465073 0.085436 
-0.484449 -0.484449 0.062952 
-0.484446 -0.455597 0.072831 
-0.484431 -0.484431 0.090193 
-0.484388 -0.499481 0.066995 
-0.484374 -0.455529 0.064024 
-0.484353 -0.494362 0.051430 
-0.484313 -0.450827 0.084174 
-0.484312 -0.373992 0.061615 
-0.484249 -0.469616 0.085815 
-0.484233 -0.410841 0.049978 
-0.484224 -0.402390 0.055082 
-0.484223 -0.464810 0.088365 
-0.484210 -0.455375 0.075732 
-0.484200 -0.474396 0.065270 
-0.484197 -0.499284 0.045585 
-0.484193 -0.494199 0.075771 
-0.484170 -0.377850 0.059136 
-0.484166 -0.455333 0.066925 
-0.484042 -0.484042 0.068929 
-0.484039 -0.450572 0.087060 
-0.483992 -0.474192 0.068227 
-0.483957 -0.493958 0.078789 
-0.483888 -0.493887 0.087960 
-0.483840 -0.493839 0.060485 
-0.483824 -0.483824 0.071915 
-0.483774 -0.473979 0.071183 
-0.483757 -0.450309 0.089945 
-0.483744 -0.389603 0.059807 
-0.483723 -0.493720 0.072646 
-0.483712 -0.493708 0.081805 
-0.483710 -0.454905 0.081530 
-0.483706 -0.514335 0.052468 
-0.483694 -0.473901 0.089149 
-0.483651 -0.493645 0.063501 
-0.483598 -0.483598 0.074900 
-0.483570 -0.478650 0.059527 
-0.483565 -0.483565 0.083967 
-0.483548 -0.473758 0.074137 
-0.483536 -0.389436 0.062517 
-0.483465 -0.478546 0.071497 
-0.483457 -0.493448 0.084820 
-0.483452 -0.493443 0.066516 
-0.483446 -0.454657 0.084426 
-0.483378 -0.478460 0.089540 
-0.483371 -0.397520 0.063018 
-0.483312 -0.473527 0.077091 
-0.483301 -0.483301 0.086950 
-0.483296 -0.513899 0.027717 
-0.483290 -0.393328 0.059999 
-0.483258 -0.473474 0.086067 
-0.483239 -0.478322 0.074464 
-0.483167 -0.389139 0.057005 
-0.483067 -0.473287 0.080042 
-0.482986 -0.473207 0.089018 
-0.482980 -0.518854 0.040251 
-0.482946 -0.478033 0.086445 
-0.482861 -0.513437 0.055470 
-0.482856 -0.518721 0.043344 
-0.482813 -0.473038 0.082992 
-0.482810 -0.397059 0.060190 
-0.482807 -0.497852 0.045454 
-0.482806 -0.380774 0.061915 
-0.482799 -0.376780 0.056273 
-0.482795 -0.492773 0.054293 
-0.482758 -0.477846 0.071392 
-0.482691 -0.513255 0.058544 
-0.482665 -0.497704 0.048480 
-0.482625 -0.492599 0.057302 
-0.482601 -0.376626 0.058944 
-0.482550 -0.472780 0.085941 
-0.482542 -0.409406 0.052582 
-0.482532 -0.477622 0.074355 
-0.482513 -0.497548 0.051505 
-0.482511 -0.513065 0.061618 
-0.482504 -0.477595 0.083358 
-0.482415 -0.518247 0.037105 
-0.482362 -0.409254 0.055343 
-0.482351 -0.497382 0.075879 
-0.482322 -0.512864 0.064691 
-0.482322 -0.512864 0.036896 
-0.482299 -0.502442 0.027363 
-0.482297 -0.477390 0.077317 
-0.482246 -0.497273 0.042367 
-0.482239 -0.396589 0.057371 
-0.482211 -0.502351 0.030402 
-0.482207 -0.512741 0.039968 
-0.482174 -0.409094 0.058103 
-0.482124 -0.512653 0.067762 
-0.482101 -0.497124 0.069730 
-0.482083 -0.512610 0.043038 
-0.482052 -0.477148 0.080277 
-0.482047 -0.497067 0.088086 
-0.482043 -0.517847 0.046370 
-0.481992 -0.497011 0.030227 
-0.481970 -0.496988 0.048410 
-0.481950 -0.512468 0.046108 
-0.481948 -0.507243 0.042794 
-0.481944 -0.392233 0.057096 
-0.481900 -0.517694 0.049457 
-0.481885 -0.496901 0.072751 
-0.481877 -0.507168 0.058131 
-0.481818 -0.496832 0.051430 
-0.481815 -0.507103 0.045847 
-0.481805 -0.491762 0.087581 
-0.481799 -0.476897 0.083236 
-0.481697 -0.506980 0.061183 
-0.481675 -0.496684 0.039287 
-0.481663 -0.467108 0.082383 
-0.481658 -0.496666 0.054450 
-0.481551 -0.496556 0.042306 
-0.481536 -0.476637 0.086193 
-0.481533 -0.491484 0.090584 
-0.481521 -0.506794 0.051949 
-0.481488 -0.496491 0.057468 
-0.481425 -0.496426 0.078789 
-0.481400 -0.466853 0.085310 
-0.481400 -0.491348 0.054136 
-0.481369 -0.371719 0.058561 
-0.481362 -0.491310 0.066229 
-0.481360 -0.506625 0.054999 
-0.481311 -0.506573 0.067283 
-0.481264 -0.476368 0.089149 
-0.481260 -0.506520 0.042733 
-0.481257 -0.383560 0.056547 
-0.481255 -0.481255 0.077543 
-0.481230 -0.491175 0.057137 
-0.481228 -0.481228 0.068528 
-0.481183 -0.501280 0.054685 
-0.481181 -0.496174 0.081805 
-0.481156 -0.491100 0.045062 
-0.481155 -0.491099 0.069229 
-0.481129 -0.466590 0.088235 
-0.481127 -0.506380 0.045781 
-0.481124 -0.511590 0.049108 
-0.481104 -0.506356 0.070331 
-0.481069 -0.516801 0.052468 
-0.481051 -0.490992 0.060137 
-0.481029 -0.387416 0.054036 
-0.481014 -0.490955 0.048061 
-0.481013 -0.501103 0.057716 
-0.481012 -0.481012 0.071497 
-0.481011 -0.481011 0.080512 
-0.480985 -0.506230 0.048829 
-0.480973 -0.511429 0.052172 
-0.480958 -0.511413 0.064508 
-0.480923 -0.495908 0.066516 
-0.480909 -0.516629 0.055548 
-0.480863 -0.490800 0.063135 
-0.480863 -0.490800 0.051060 
-0.480839 -0.511287 0.039854 
-0.480823 -0.506059 0.064142 
-0.480812 -0.511258 0.055234 
-0.480758 -0.480758 0.083480 
-0.480739 -0.516446 0.058627 
-0.480716 -0.495695 0.069530 
-0.480716 -0.511155 0.042916 
-0.480701 -0.395324 0.057188 
-0.480615 -0.495591 0.060398 
-0.480591 -0.490522 0.042001 
-0.480583 -0.511014 0.045978 
-0.480560 -0.516254 0.061705 
-0.480552 -0.480552 0.077430 
-0.480503 -0.395162 0.059903 
-0.480500 -0.495473 0.072542 
-0.480489 -0.495462 0.081688 
-0.480441 -0.510863 0.049038 
-0.480427 -0.495397 0.063410 
-0.480399 -0.495368 0.036163 
-0.480340 -0.526717 0.040478 
-0.480285 -0.495250 0.039174 
-0.480275 -0.495241 0.075553 
-0.480237 -0.495201 0.084698 
-0.480229 -0.515899 0.055470 
-0.480203 -0.505407 0.073274 
-0.480153 -0.515817 0.086526 
-0.480144 -0.500198 0.060659 
-0.480130 -0.490052 0.035954 
-0.480084 -0.480084 0.074355 
-0.480040 -0.500089 0.033296 
-0.480016 -0.489936 0.038947 
-0.479956 -0.500002 0.063684 
-0.479934 -0.499980 0.036320 
-0.479891 -0.515535 0.089600 
-0.479887 -0.378472 0.058848 
-0.479872 -0.510259 0.070531 
-0.479868 -0.386481 0.059328 
-0.479820 -0.499861 0.039344 
-0.479799 -0.515436 0.033824 
-0.479723 -0.504902 0.027363 
-0.479699 -0.406994 0.060574 
-0.479697 -0.499732 0.042367 
-0.479657 -0.510030 0.073587 
-0.479636 -0.504811 0.030402 
-0.479590 -0.494534 0.039117 
-0.479564 -0.499594 0.045389 
-0.479540 -0.504710 0.033440 
-0.479466 -0.494407 0.042123 
-0.479446 -0.509806 0.055077 
-0.479435 -0.504599 0.036477 
-0.479432 -0.509791 0.076641 
-0.479399 -0.536605 0.025127 
-0.479397 -0.509753 0.067379 
-0.479348 -0.509701 0.042794 
-0.479334 -0.494270 0.045127 
-0.479321 -0.504479 0.039514 
-0.479301 -0.514901 0.027638 
-0.479272 -0.499289 0.051430 
-0.479215 -0.509560 0.045847 
-0.479192 -0.494124 0.048131 
-0.479191 -0.509534 0.070431 
-0.479162 -0.394059 0.057005 
-0.479116 -0.494045 0.072333 
-0.479102 -0.509440 0.030533 
-0.479074 -0.509410 0.048898 
-0.479052 -0.514634 0.083216 
-0.479041 -0.493968 0.051134 
-0.478924 -0.504061 0.048619 
-0.478901 -0.509226 0.036634 
-0.478891 -0.493814 0.075335 
-0.478882 -0.493804 0.054136 
-0.478871 -0.525107 0.043466 
-0.478855 -0.493776 0.084455 
-0.478851 -0.514419 0.076968 
-0.478773 -0.503902 0.051653 
-0.478751 -0.509067 0.076533 
-0.478739 -0.524961 0.046566 
-0.478712 -0.493629 0.057137 
-0.478658 -0.493573 0.078336 
-0.478618 -0.514168 0.080034 
-0.478613 -0.503734 0.054685 
-0.478598 -0.524806 0.049666 
-0.478534 -0.493445 0.060137 
-0.478518 -0.508819 0.079581 
-0.478444 -0.503556 0.057716 
-0.478415 -0.493323 0.081335 
-0.478386 -0.498366 0.084820 
-0.478377 -0.405873 0.057645 
-0.478376 -0.503484 0.079128 
-0.478375 -0.513907 0.083098 
-0.478323 -0.493228 0.090454 
-0.478318 -0.385233 0.059136 
-0.478313 -0.493218 0.036006 
-0.478219 -0.513739 0.039854 
-0.478164 -0.493063 0.084333 
-0.478134 -0.503229 0.082158 
-0.478125 -0.498094 0.087834 
-0.478096 -0.513607 0.042916 
-0.477963 -0.513465 0.045978 
-0.477946 -0.503031 0.039401 
-0.477941 -0.524086 0.062054 
-0.477903 -0.492795 0.087329 
-0.477882 -0.502964 0.085186 
-0.477822 -0.513313 0.049038 
-0.477754 -0.523881 0.065148 
-0.477691 -0.497643 0.066420 
-0.477672 -0.513151 0.052097 
-0.477638 -0.507883 0.033488 
-0.477622 -0.502690 0.088212 
-0.477595 -0.507837 0.082510 
-0.477558 -0.523666 0.068241 
-0.477462 -0.512926 0.067475 
-0.477372 -0.502427 0.036320 
-0.477352 -0.523441 0.071333 
-0.477344 -0.507570 0.085551 
-0.477257 -0.512706 0.070531 
-0.477172 -0.512614 0.030576 
-0.477135 -0.507348 0.027363 
-0.477084 -0.507293 0.088591 
-0.477076 -0.512512 0.033632 
-0.477051 -0.507259 0.060921 
-0.477049 -0.507256 0.030402 
-0.477043 -0.512475 0.073587 
-0.476980 -0.512408 0.064325 
-0.476972 -0.512399 0.036687 
-0.476961 -0.491823 0.062952 
-0.476953 -0.507155 0.033440 
-0.476894 -0.501924 0.060572 
-0.476865 -0.507061 0.063959 
-0.476849 -0.507044 0.036477 
-0.476819 -0.512236 0.076641 
-0.476816 -0.496731 0.078449 
-0.476797 -0.496711 0.069329 
-0.476765 -0.491621 0.065941 
-0.476735 -0.506923 0.039514 
-0.476587 -0.511986 0.079694 
-0.476560 -0.491410 0.068929 
-0.476555 -0.501568 0.075771 
-0.476522 -0.491370 0.087076 
-0.476468 -0.522471 0.074319 
-0.476464 -0.506635 0.070031 
-0.476431 -0.522431 0.052542 
-0.476360 -0.496256 0.075335 
-0.476272 -0.522256 0.055627 
-0.476255 -0.501252 0.087960 
-0.476253 -0.491093 0.090062 
-0.476250 -0.506407 0.073065 
-0.476190 -0.506343 0.051653 
-0.476136 -0.532954 0.043710 
-0.476104 -0.522072 0.058710 
-0.476099 -0.403940 0.057371 
-0.476095 -0.511458 0.085795 
-0.476081 -0.501069 0.081805 
-0.476027 -0.506170 0.076097 
-0.476022 -0.501006 0.063501 
-0.476013 -0.521972 0.080487 
-0.475927 -0.521878 0.061793 
-0.475863 -0.505996 0.057716 
-0.475835 -0.511179 0.088843 
-0.475831 -0.500806 0.084820 
-0.475826 -0.500800 0.066516 
-0.475725 -0.505848 0.088338 
-0.475631 -0.521553 0.040081 
-0.475600 -0.521520 0.055548 
-0.475575 -0.521492 0.077295 
-0.475554 -0.505667 0.082158 
-0.475509 -0.521419 0.043160 
-0.475432 -0.521336 0.058627 
-0.475412 -0.500365 0.033152 
-0.475377 -0.521275 0.046239 
-0.475343 -0.521238 0.080373 
-0.475327 -0.532048 0.028031 
-0.475307 -0.510611 0.057965 
-0.475304 -0.505401 0.085186 
-0.475237 -0.521121 0.049317 
-0.475206 -0.495053 0.072124 
-0.475128 -0.521001 0.074110 
-0.475115 -0.505200 0.079015 
-0.475102 -0.520974 0.083451 
-0.475070 -0.520938 0.064782 
-0.475045 -0.505126 0.088212 
-0.475025 -0.531710 0.065514 
-0.474936 -0.499864 0.069430 
-0.474929 -0.531602 0.040478 
-0.474875 -0.520724 0.067858 
-0.474874 -0.504944 0.082040 
-0.474807 -0.531465 0.043588 
-0.474749 -0.510012 0.067091 
-0.474724 -0.531373 0.059207 
-0.474671 -0.520500 0.070932 
-0.474587 -0.494409 0.047922 
-0.474547 -0.531175 0.062316 
-0.474511 -0.494330 0.081100 
-0.474451 -0.509692 0.060921 
-0.474440 -0.547739 0.044320 
-0.474398 -0.520202 0.036896 
-0.474386 -0.530994 0.052913 
-0.474362 -0.530967 0.065423 
-0.474311 -0.504345 0.030227 
-0.474286 -0.520078 0.039968 
-0.474270 -0.499162 0.078449 
-0.474266 -0.509492 0.063959 
-0.474216 -0.504244 0.033248 
-0.474184 -0.519966 0.086404 
-0.474167 -0.530749 0.068529 
-0.474163 -0.519944 0.043038 
-0.474038 -0.498919 0.072333 
-0.474032 -0.519800 0.046108 
-0.474010 -0.530574 0.046632 
-0.473996 -0.530557 0.027952 
-0.473941 -0.503952 0.066612 
-0.473870 -0.530417 0.049736 
-0.473816 -0.498685 0.075335 
-0.473787 -0.519532 0.073901 
-0.473598 -0.530113 0.040364 
-0.473525 -0.503509 0.072646 
-0.473515 -0.519233 0.086283 
-0.473396 -0.529886 0.059041 
-0.473346 -0.529830 0.046566 
-0.473300 -0.529779 0.071533 
-0.473257 -0.518950 0.089348 
-0.473244 -0.529716 0.031012 
-0.473220 -0.518910 0.049108 
-0.473206 -0.529673 0.049666 
-0.473150 -0.529610 0.034112 
-0.473073 -0.503028 0.078675 
-0.473053 -0.518726 0.036791 
-0.473046 -0.529494 0.037210 
-0.472933 -0.529368 0.040308 
-0.472913 -0.518573 0.055234 
-0.472866 -0.545921 0.063187 
-0.472818 -0.545866 0.034687 
-0.472812 -0.529232 0.043405 
-0.472740 -0.518383 0.024499 
-0.472739 -0.502674 0.090845 
-0.472714 -0.545746 0.037838 
-0.472664 -0.529067 0.027874 
-0.472663 -0.518299 0.027560 
-0.472601 -0.545616 0.040988 
-0.472588 -0.518217 0.089222 
-0.472579 -0.528971 0.030969 
-0.472578 -0.518205 0.030620 
-0.472571 -0.518197 0.061357 
-0.472484 -0.528865 0.034064 
-0.472483 -0.518102 0.033680 
-0.472425 -0.528800 0.074528 
-0.472399 -0.518010 0.052097 
-0.472380 -0.528749 0.037158 
-0.472380 -0.517988 0.036739 
-0.472235 -0.528586 0.055784 
-0.472226 -0.517819 0.076750 
-0.472147 -0.528488 0.043344 
-0.472068 -0.528400 0.058876 
-0.472016 -0.528341 0.046435 
-0.471996 -0.517567 0.079807 
-0.471892 -0.528203 0.061967 
-0.471876 -0.528185 0.049526 
-0.471818 -0.528120 0.034016 
-0.471757 -0.517305 0.082863 
-0.471735 -0.528027 0.083803 
-0.471728 -0.528019 0.052616 
-0.471571 -0.527843 0.055705 
-0.471509 -0.517033 0.085917 
-0.471487 -0.527749 0.086892 
-0.471404 -0.527657 0.058793 
-0.471393 -0.516906 0.024429 
-0.471251 -0.516751 0.088969 
-0.471251 -0.544057 0.056647 
-0.471240 -0.579021 0.071883 
-0.471230 -0.527461 0.089979 
-0.471229 -0.527460 0.061880 
-0.471224 -0.501063 0.084455 
-0.471183 -0.543979 0.069296 
-0.471085 -0.543865 0.059787 
-0.471064 -0.527275 0.052542 
-0.471050 -0.527260 0.037053 
-0.471044 -0.527254 0.064965 
-0.470981 -0.543745 0.072435 
-0.470906 -0.527100 0.055627 
-0.470782 -0.537933 0.040591 
-0.470753 -0.543481 0.037681 
-0.470725 -0.543450 0.066063 
-0.470680 -0.532300 0.059041 
-0.470661 -0.537795 0.043710 
-0.470640 -0.543352 0.040818 
-0.470531 -0.537646 0.046828 
-0.470505 -0.532102 0.062141 
-0.470339 -0.554359 0.038100 
-0.470332 -0.531906 0.037210 
-0.470321 -0.531894 0.065240 
-0.470227 -0.554227 0.041272 
-0.470220 -0.531779 0.040308 
-0.470217 -0.526328 0.077295 
-0.470188 -0.526295 0.067954 
-0.470186 -0.531741 0.055862 
-0.470118 -0.542750 0.075469 
-0.470106 -0.554084 0.044443 
-0.470099 -0.531643 0.043405 
-0.470068 -0.548332 0.063187 
-0.469988 -0.526072 0.080373 
-0.469986 -0.526069 0.071032 
-0.469970 -0.515346 0.027403 
-0.469969 -0.531496 0.046501 
-0.469937 -0.536968 0.024917 
-0.469901 -0.525975 0.061705 
-0.469885 -0.515253 0.030446 
-0.469884 -0.548118 0.066338 
-0.469874 -0.536895 0.046762 
-0.469861 -0.536881 0.028031 
-0.469791 -0.515149 0.033488 
-0.469776 -0.536783 0.031143 
-0.469750 -0.525805 0.083451 
-0.469736 -0.542308 0.047024 
-0.469735 -0.536737 0.049875 
-0.469718 -0.525769 0.064782 
-0.469682 -0.536676 0.034256 
-0.469597 -0.542148 0.050154 
-0.469579 -0.536559 0.037367 
-0.469525 -0.525553 0.067858 
-0.469469 -0.530930 0.068241 
-0.469467 -0.536431 0.040478 
-0.469449 -0.541977 0.053283 
-0.469347 -0.536293 0.043588 
-0.469323 -0.525327 0.070932 
-0.469267 -0.530702 0.071333 
-0.469248 -0.541744 0.078492 
-0.469184 -0.530607 0.090105 
-0.469170 -0.530591 0.049526 
-0.469112 -0.525091 0.074005 
-0.469056 -0.530463 0.074423 
-0.469022 -0.530424 0.052616 
-0.468935 -0.552705 0.041158 
-0.468893 -0.524845 0.077077 
-0.468861 -0.524811 0.067762 
-0.468814 -0.552562 0.044320 
-0.468685 -0.552410 0.047482 
-0.468664 -0.524590 0.080147 
-0.468421 -0.535235 0.049736 
-0.468375 -0.540737 0.072034 
-0.468371 -0.529688 0.083686 
-0.468274 -0.535067 0.052838 
-0.468240 -0.540581 0.034352 
-0.468230 -0.524104 0.076968 
-0.468125 -0.529409 0.086770 
-0.468118 -0.534888 0.055940 
-0.468004 -0.523851 0.027599 
-0.467967 -0.529231 0.027756 
-0.467919 -0.523756 0.030664 
-0.467905 -0.540195 0.043710 
-0.467882 -0.529135 0.030838 
-0.467826 -0.523651 0.033728 
-0.467789 -0.529030 0.033920 
-0.467674 -0.545539 0.025092 
-0.467598 -0.545451 0.028227 
-0.467520 -0.528725 0.077295 
-0.467403 -0.534072 0.068337 
-0.467317 -0.545123 0.037629 
-0.467292 -0.528468 0.080373 
-0.467203 -0.533843 0.071433 
-0.467123 -0.539291 0.046762 
-0.467100 -0.544870 0.069104 
-0.467099 -0.512197 0.033296 
-0.466985 -0.539131 0.049875 
-0.466960 -0.533566 0.052690 
-0.466940 -0.533542 0.065148 
-0.466906 -0.522621 0.076750 
-0.466899 -0.544636 0.072235 
-0.466742 -0.550120 0.028345 
-0.466737 -0.573488 0.048463 
-0.466690 -0.544391 0.075364 
-0.466641 -0.573371 0.074439 
-0.466640 -0.533200 0.058876 
-0.466622 -0.538712 0.068625 
-0.466599 -0.573319 0.051689 
-0.466556 -0.544236 0.040705 
-0.466519 -0.511562 0.030227 
-0.466517 -0.538592 0.059207 
-0.466471 -0.544136 0.078492 
-0.466466 -0.533001 0.061967 
-0.466463 -0.549791 0.053580 
-0.466442 -0.522102 0.082863 
-0.466432 -0.573113 0.077664 
-0.466338 -0.532855 0.074423 
-0.466307 -0.549608 0.056725 
-0.466284 -0.532793 0.065057 
-0.466212 -0.538239 0.074842 
-0.466197 -0.521828 0.085917 
-0.466170 -0.543784 0.050084 
-0.466092 -0.532574 0.068145 
-0.466028 -0.549279 0.082071 
-0.466023 -0.543613 0.053209 
-0.466016 -0.521626 0.079694 
-0.465993 -0.537987 0.077948 
-0.465942 -0.521543 0.088969 
-0.465935 -0.537920 0.087379 
-0.465892 -0.532345 0.071233 
-0.465867 -0.543432 0.056333 
-0.465792 -0.549000 0.085214 
-0.465766 -0.537725 0.081053 
-0.465703 -0.543240 0.059455 
-0.465683 -0.532106 0.074319 
-0.465681 -0.537627 0.090484 
-0.465658 -0.543188 0.046893 
-0.465532 -0.537454 0.052838 
-0.465530 -0.537453 0.084156 
-0.465492 -0.531888 0.055627 
-0.465377 -0.537275 0.055940 
-0.465365 -0.548497 0.031405 
-0.465327 -0.531700 0.058710 
-0.465154 -0.531502 0.061793 
-0.465039 -0.536885 0.062141 
-0.464857 -0.536675 0.065240 
-0.464853 -0.547894 0.059704 
-0.464819 -0.553566 0.041045 
-0.464811 -0.547844 0.047089 
-0.464810 -0.531109 0.077295 
-0.464699 -0.553423 0.044198 
-0.464680 -0.547690 0.062838 
-0.464674 -0.547682 0.050224 
-0.464672 -0.530951 0.024638 
-0.464597 -0.530865 0.027717 
-0.464584 -0.530850 0.080373 
-0.464564 -0.570818 0.054691 
-0.464544 -0.547529 0.075469 
-0.464524 -0.547506 0.037629 
-0.464513 -0.530769 0.030794 
-0.464465 -0.536223 0.080826 
-0.464457 -0.519880 0.082510 
-0.464409 -0.570628 0.057902 
-0.464348 -0.530581 0.083451 
-0.464326 -0.547273 0.078601 
-0.464213 -0.519607 0.085551 
-0.464169 -0.541451 0.034256 
-0.464156 -0.547072 0.028188 
-0.464156 -0.530361 0.077186 
-0.464104 -0.530302 0.086526 
-0.464073 -0.546974 0.031318 
-0.464028 -0.546922 0.050154 
-0.463980 -0.546864 0.034447 
-0.463960 -0.519324 0.088591 
-0.463929 -0.552506 0.047286 
-0.463851 -0.530013 0.089600 
-0.463838 -0.541064 0.043588 
-0.463792 -0.552343 0.050433 
-0.463683 -0.546515 0.078492 
-0.463646 -0.552169 0.053580 
-0.463552 -0.518867 0.085430 
-0.463457 -0.546248 0.081619 
-0.463450 -0.529555 0.086404 
-0.463281 -0.551734 0.028305 
-0.463275 -0.529355 0.080147 
-0.463259 -0.534831 0.024708 
-0.463257 -0.546012 0.075260 
-0.463222 -0.545971 0.084744 
-0.463210 -0.545957 0.065789 
-0.463197 -0.551635 0.031449 
-0.463185 -0.534744 0.027795 
-0.463101 -0.534648 0.030882 
-0.463040 -0.529087 0.083216 
-0.463040 -0.545756 0.078383 
-0.463020 -0.545733 0.068912 
-0.463011 -0.540100 0.081053 
-0.462930 -0.534450 0.083686 
-0.462821 -0.545499 0.072034 
-0.462686 -0.534169 0.086770 
-0.462613 -0.545254 0.075155 
-0.462605 -0.534075 0.024673 
-0.462545 -0.528520 0.089348 
-0.462530 -0.533989 0.027756 
-0.462447 -0.533892 0.030838 
-0.462434 -0.533878 0.089853 
-0.462357 -0.544951 0.043710 
-0.462312 -0.539284 0.031012 
-0.462217 -0.544787 0.028070 
-0.462177 -0.544740 0.071934 
-0.462171 -0.544733 0.081392 
-0.462133 -0.544688 0.031187 
-0.462041 -0.544579 0.034304 
-0.461922 -0.544439 0.065606 
-0.461793 -0.544287 0.056176 
-0.461732 -0.544215 0.068721 
-0.461702 -0.549854 0.084979 
-0.461694 -0.544171 0.087623 
-0.461459 -0.549565 0.088111 
-0.461458 -0.543892 0.062403 
-0.461443 -0.543874 0.090736 
-0.461316 -0.516365 0.088086 
-0.461110 -0.543482 0.078057 
-0.461100 -0.566562 0.060698 
-0.460837 -0.537564 0.083803 
-0.460657 -0.542947 0.052913 
-0.460652 -0.542942 0.084273 
-0.460595 -0.537281 0.086892 
-0.460538 -0.542808 0.040421 
-0.460503 -0.542766 0.056019 
-0.460467 -0.542725 0.077948 
-0.460410 -0.542657 0.087379 
-0.460344 -0.536988 0.089979 
-0.460243 -0.542460 0.081053 
-0.460159 -0.542361 0.090484 
-0.460156 -0.542358 0.049736 
-0.460068 -0.547908 0.028109 
-0.460011 -0.542187 0.052838 
-0.460010 -0.542185 0.084156 
-0.460002 -0.542175 0.037262 
-0.459768 -0.541900 0.087258 
-0.459600 -0.541702 0.080939 
-0.459517 -0.541605 0.090358 
-0.459456 -0.541532 0.034112 
-0.459366 -0.541427 0.052764 
-0.459355 -0.541414 0.037210 
-0.459246 -0.541285 0.040308 
-0.459128 -0.541146 0.043405 
-0.459051 -0.541055 0.058959 
-0.459001 -0.540996 0.046501 
-0.458865 -0.540836 0.049596 
-0.458608 -0.546170 0.034256 
-0.458508 -0.546050 0.037367 
-0.458413 -0.563260 0.063536 
-0.458234 -0.540092 0.090105 
-0.458154 -0.545628 0.046697 
-0.457766 -0.539540 0.024708 
-0.457710 -0.539474 0.046370 
-0.457692 -0.539453 0.027795 
-0.457609 -0.539355 0.030882 
-0.457429 -0.562051 0.079363 
-0.457224 -0.538902 0.068050 
-0.457117 -0.538775 0.058710 
-0.457028 -0.538670 0.071133 
-0.456997 -0.544251 0.043466 
-0.456946 -0.538574 0.061793 
-0.456823 -0.538429 0.074214 
-0.456768 -0.538364 0.064874 
-0.456580 -0.538143 0.067954 
-0.456384 -0.537912 0.071032 
-0.456186 -0.543284 0.080826 
-0.456124 -0.537605 0.064782 
-0.456094 -0.543175 0.049596 
-0.455936 -0.537384 0.067858 
-0.455827 -0.537255 0.058544 
-0.455798 -0.542823 0.055784 
-0.455773 -0.537192 0.046174 
-0.455769 -0.542788 0.077621 
-0.455657 -0.537055 0.061618 
-0.455637 -0.542632 0.058876 
-0.455479 -0.536845 0.036896 
-0.455371 -0.536717 0.039968 
-0.455343 -0.536685 0.055391 
-0.455129 -0.542027 0.077512 
-0.454993 -0.536272 0.049177 
-0.454908 -0.541763 0.080600 
-0.454828 -0.541668 0.089979 
-0.454827 -0.541667 0.061880 
-0.454703 -0.541519 0.074319 
-0.454438 -0.541203 0.086770 
-0.454369 -0.535536 0.061444 
-0.454191 -0.535327 0.064508 
-0.453904 -0.540568 0.040081 
-0.453813 -0.534882 0.027560 
-0.453731 -0.534785 0.030620 
-0.453640 -0.534678 0.033680 
-0.453560 -0.540158 0.030794 
-0.453560 -0.534583 0.052097 
-0.453470 -0.540050 0.033872 
-0.453400 -0.539967 0.083451 
-0.453370 -0.539932 0.036948 
-0.453248 -0.534216 0.058213 
-0.453005 -0.556616 0.043893 
-0.452988 -0.539476 0.070932 
-0.452815 -0.556383 0.081732 
-0.452763 -0.533644 0.055077 
-0.452586 -0.556101 0.084861 
-0.452348 -0.538714 0.070832 
-0.452145 -0.538473 0.073901 
-0.451948 -0.555316 0.065789 
-0.451448 -0.537642 0.064508 
-0.451262 -0.537421 0.067570 
-0.450979 -0.554126 0.028070 
-0.450897 -0.554026 0.031187 
-0.450820 -0.536895 0.052097 
-0.450708 -0.553793 0.037419 
-0.450670 -0.536716 0.055156 
-0.450601 -0.553662 0.040535 
-0.450505 -0.553544 0.068721 
-0.449982 -0.535897 0.067379 
-0.449229 -0.535000 0.058048 
-0.449062 -0.534801 0.061095 
-0.448886 -0.534591 0.064142 
-0.446393 -0.548492 0.033968 
-0.444203 -0.545801 0.086404 
-0.443335 -0.544734 0.089348 
-0.442147 -0.543274 0.070531 
-0.441949 -0.543031 0.073587 
-0.441742 -0.542776 0.076641 
-0.441526 -0.542512 0.079694 
-0.441456 -0.542426 0.088969 
-0.441303 -0.542237 0.082746 
-0.441071 -0.541952 0.085795 
-0.642877 -0.308899 0.164663 
-0.640002 -0.307518 0.160667 
-0.637108 -0.306127 0.156701 
-0.629513 -0.306450 0.184331 
-0.622396 -0.302985 0.179021 
-0.618985 -0.301325 0.203922 
-0.591438 -0.284183 0.166645 
-0.587114 -0.274751 0.093987 
-0.584991 -0.277413 0.122919 
-0.584946 -0.273736 0.096519 
-0.584501 -0.277180 0.125742 
-0.582923 -0.280092 0.167253 
-0.582768 -0.272717 0.099032 
-0.582372 -0.272532 0.101838 
-0.581963 -0.272341 0.104643 
-0.581544 -0.272145 0.107445 
-0.580455 -0.275261 0.127783 
-0.579945 -0.275020 0.130585 
-0.575268 -0.272802 0.115129 
-0.573591 -0.272006 0.134934 
-0.573053 -0.271751 0.137703 
-0.572505 -0.271492 0.140469 
-0.571946 -0.271226 0.143232 
-0.571800 -0.274747 0.167018 
-0.571137 -0.274429 0.169785 
-0.567840 -0.276427 0.181093 
-0.567290 -0.258436 0.115537 
-0.567124 -0.276079 0.183847 
-0.566974 -0.268868 0.144868 
-0.566398 -0.275725 0.186597 
-0.565939 -0.264842 0.107367 
-0.565666 -0.268248 0.093563 
-0.565660 -0.275366 0.189344 
-0.564705 -0.274901 0.159507 
-0.564052 -0.274583 0.191795 
-0.563638 -0.274381 0.218914 
-0.563259 -0.267107 0.109919 
-0.562756 -0.256370 0.103484 
-0.561942 -0.262971 0.109398 
-0.561504 -0.262766 0.112104 
-0.561077 -0.273135 0.211828 
-0.560206 -0.269176 0.134944 
-0.560165 -0.262140 0.114625 
-0.560156 -0.272687 0.205435 
-0.560125 -0.265621 0.106520 
-0.560117 -0.272667 0.229821 
-0.559849 -0.269005 0.132023 
-0.558598 -0.268404 0.128905 
-0.557927 -0.261092 0.116950 
-0.557866 -0.264549 0.103319 
-0.557773 -0.254100 0.099820 
-0.557629 -0.271456 0.180769 
-0.557473 -0.271381 0.154587 
-0.557469 -0.271378 0.177785 
-0.556450 -0.267372 0.125601 
-0.555205 -0.259818 0.121931 
-0.555090 -0.263233 0.097301 
-0.555081 -0.270216 0.206565 
-0.554701 -0.263049 0.099981 
-0.554575 -0.262989 0.094468 
-0.554266 -0.269819 0.209257 
-0.553439 -0.269417 0.211944 
-0.553315 -0.269356 0.230086 
-0.553205 -0.262339 0.144166 
-0.552834 -0.269122 0.150454 
-0.551752 -0.261650 0.146603 
-0.551677 -0.261614 0.138156 
-0.551126 -0.261353 0.140819 
-0.551117 -0.261349 0.126868 
-0.550748 -0.271599 0.241890 
-0.550729 -0.250891 0.109435 
-0.550612 -0.261109 0.129528 
-0.550566 -0.261088 0.143479 
-0.550096 -0.260865 0.132186 
-0.550029 -0.267757 0.222655 
-0.549922 -0.267705 0.146837 
-0.549796 -0.271129 0.244567 
-0.549570 -0.260615 0.134841 
-0.549458 -0.257129 0.117919 
-0.549366 -0.250270 0.106446 
-0.549151 -0.267329 0.225322 
-0.548970 -0.267241 0.234372 
-0.548834 -0.270655 0.247240 
-0.548805 -0.267161 0.192451 
-0.548536 -0.260125 0.148553 
-0.548380 -0.273926 0.272920 
-0.548358 -0.266943 0.212979 
-0.548045 -0.266791 0.237034 
-0.547838 -0.266690 0.189193 
-0.547378 -0.249364 0.095268 
-0.547312 -0.273392 0.094164 
-0.547309 -0.273391 0.275592 
-0.547215 -0.262934 0.120760 
-0.546994 -0.249190 0.097892 
-0.546940 -0.273206 0.096832 
-0.546815 -0.273144 0.304753 
-0.546793 -0.273133 0.259445 
-0.546600 -0.249010 0.100513 
-0.546555 -0.266065 0.203392 
-0.546481 -0.259150 0.145202 
-0.546066 -0.255542 0.092795 
-0.546056 -0.272765 0.096676 
-0.546046 -0.265817 0.171278 
-0.545915 -0.262309 0.117728 
-0.545903 -0.258877 0.147840 
-0.545823 -0.265709 0.214971 
-0.545800 -0.272637 0.110324 
-0.545694 -0.255368 0.095424 
-0.545673 -0.272574 0.099338 
-0.545621 -0.272548 0.307417 
-0.545364 -0.272419 0.112985 
-0.545344 -0.272410 0.107488 
-0.545311 -0.255189 0.098052 
-0.545190 -0.272332 0.240058 
-0.545172 -0.272324 0.096519 
-0.545146 -0.272311 0.258663 
-0.545020 -0.272248 0.091050 
-0.544997 -0.265307 0.182428 
-0.544974 -0.265296 0.217618 
-0.544953 -0.272214 0.261715 
-0.544918 -0.272197 0.115644 
-0.544852 -0.254974 0.127865 
-0.544790 -0.272133 0.099177 
-0.544786 -0.265204 0.199798 
-0.544709 -0.265167 0.196843 
-0.544660 -0.272068 0.093707 
-0.544481 -0.296784 0.092676 
-0.544415 -0.271946 0.310075 
-0.544398 -0.271937 0.101834 
-0.544376 -0.261570 0.164657 
-0.544342 -0.254735 0.130489 
-0.544315 -0.268426 0.229934 
-0.544276 -0.264956 0.185071 
-0.544268 -0.244595 0.099853 
-0.544231 -0.285908 0.094620 
-0.543995 -0.271736 0.104488 
-0.543907 -0.271692 0.099017 
-0.543861 -0.285713 0.097301 
-0.543859 -0.264753 0.093099 
-0.543582 -0.271529 0.107140 
-0.543545 -0.264600 0.187710 
-0.543516 -0.271496 0.101669 
-0.543505 -0.247600 0.102625 
-0.543489 -0.264573 0.095737 
-0.543410 -0.267980 0.232580 
-0.543405 -0.271441 0.096207 
-0.543385 -0.267968 0.093251 
-0.543301 -0.281884 0.110680 
-0.543240 -0.244133 0.094329 
-0.543201 -0.264433 0.103811 
-0.542970 -0.264320 0.092947 
-0.542867 -0.281658 0.113350 
-0.542860 -0.243962 0.096927 
-0.542801 -0.264238 0.117347 
-0.542789 -0.264232 0.106446 
-0.542753 -0.267656 0.211331 
-0.542717 -0.264197 0.101008 
-0.542648 -0.257333 0.169378 
-0.542600 -0.264140 0.095581 
-0.542494 -0.267529 0.235222 
-0.542423 -0.281428 0.116017 
-0.542366 -0.264026 0.109079 
-0.542366 -0.264026 0.225533 
-0.542335 -0.264011 0.119980 
-0.542279 -0.270878 0.109613 
-0.542220 -0.263955 0.098213 
-0.542142 -0.270810 0.098695 
-0.542129 -0.267348 0.095737 
-0.542052 -0.253663 0.132677 
-0.541975 -0.257014 0.171997 
-0.541860 -0.263780 0.122611 
-0.541852 -0.284658 0.110680 
-0.541830 -0.263765 0.100843 
-0.541827 -0.270652 0.117728 
-0.541820 -0.270649 0.106793 
-0.541808 -0.256935 0.149507 
-0.541808 -0.243489 0.091425 
-0.541751 -0.270615 0.101339 
-0.541523 -0.253416 0.135287 
-0.541490 -0.263600 0.114339 
-0.541476 -0.263593 0.228163 
-0.541455 -0.246666 0.091578 
-0.541429 -0.263570 0.103472 
-0.541420 -0.284430 0.113350 
-0.541397 -0.263554 0.178361 
-0.541373 -0.263543 0.125239 
-0.541362 -0.270420 0.120370 
-0.541292 -0.256690 0.174613 
-0.541214 -0.256653 0.152122 
-0.541193 -0.263455 0.092642 
-0.541123 -0.270301 0.093099 
-0.540966 -0.270222 0.112074 
-0.540932 -0.256519 0.149265 
-0.540908 -0.256508 0.183024 
-0.540824 -0.263276 0.095268 
-0.540650 -0.294695 0.094772 
-0.540645 -0.270062 0.262775 
-0.540597 -0.263165 0.108723 
-0.540530 -0.270005 0.275356 
-0.540523 -0.270001 0.114712 
-0.540445 -0.263091 0.097892 
-0.540338 -0.263039 0.192369 
-0.540249 -0.259587 0.166222 
-0.540239 -0.269859 0.092947 
-0.540214 -0.283797 0.091198 
-0.540182 -0.266388 0.207386 
-0.540182 -0.256163 0.185634 
-0.540165 -0.262955 0.111345 
-0.540135 -0.266365 0.114339 
-0.540126 -0.266361 0.108901 
-0.540098 -0.262922 0.122212 
-0.540086 -0.269783 0.111892 
-0.540056 -0.262902 0.100513 
-0.540010 -0.269745 0.122810 
-0.539991 -0.262870 0.141416 
-0.539916 -0.252664 0.129428 
-0.539890 -0.262821 0.212634 
-0.539857 -0.283610 0.093859 
-0.539695 -0.266148 0.111527 
-0.539682 -0.266142 0.116965 
-0.539614 -0.269547 0.265410 
-0.539590 -0.259270 0.168835 
-0.539590 -0.259270 0.183024 
-0.539558 -0.262659 0.097731 
-0.539489 -0.283416 0.096519 
-0.539450 -0.269465 0.277990 
-0.539416 -0.262590 0.092338 
-0.539400 -0.252422 0.132027 
-0.539373 -0.262569 0.189143 
-0.539290 -0.265949 0.204114 
-0.539247 -0.262508 0.105751 
-0.539219 -0.265914 0.119590 
-0.539192 -0.269336 0.117156 
-0.539158 -0.252309 0.162290 
