# .PCD v.7 - Point Cloud Data file format
VERSION .7
FIELDS x y z
SIZE 4 4 4
TYPE F F F
COUNT 1 1 1
WIDTH 1594
HEIGHT 1
POINTS 1594
DATA ascii
-0.101580 0.492236 0.329524 
-0.101554 0.456608 0.167944 
-0.101540 0.479637 0.288789 
-0.101531 0.491997 0.326238 
-0.101520 0.479542 0.283000 
-0.101499 0.491844 0.335564 
-0.101487 0.479386 0.277234 
-0.101463 0.491667 0.348267 
-0.101456 0.479241 0.291437 
-0.101320 0.490976 0.351028 
-0.101303 0.455478 0.165234 
-0.101289 0.490824 0.331713 
-0.101269 0.490729 0.344374 
-0.101254 0.455256 0.162867 
-0.101244 0.517278 0.517971 
-0.101242 0.490598 0.328427 
-0.101219 0.517146 0.522378 
-0.101203 0.490406 0.337752 
-0.101194 0.478004 0.273628 
-0.101154 0.516817 0.499744 
-0.101150 0.516799 0.531217 
-0.101147 0.454778 0.158148 
-0.101114 0.546187 0.482858 
-0.101107 0.516579 0.517270 
-0.101085 0.477488 0.251372 
-0.101041 0.477278 0.253961 
-0.101017 0.477168 0.264823 
-0.101010 0.489471 0.353212 
-0.100996 0.454100 0.160179 
-0.100995 0.489401 0.333897 
-0.100993 0.477055 0.256553 
-0.100990 0.515977 0.512177 
-0.100965 0.489253 0.346557 
-0.100952 0.489193 0.312122 
-0.100944 0.476820 0.259148 
-0.100905 0.488966 0.302963 
-0.100904 0.488958 0.339934 
-0.100896 0.515498 0.456616 
-0.100891 0.476571 0.261745 
-0.100855 0.476401 0.209214 
-0.100831 0.476289 0.242731 
-0.100810 0.488501 0.305661 
-0.100799 0.476135 0.226946 
-0.100780 0.476046 0.229493 
-0.100758 0.475945 0.232045 
-0.100736 0.514681 0.497679 
-0.100734 0.514672 0.502037 
-0.100730 0.544110 0.485277 
-0.100700 0.487970 0.336074 
-0.100678 0.452670 0.155162 
-0.100676 0.487854 0.314298 
-0.100665 0.475503 0.211337 
-0.100663 0.475492 0.213858 
-0.100658 0.487767 0.348734 
-0.100658 0.475469 0.216384 
-0.100657 0.514275 0.459563 
-0.100614 0.528374 0.542580 
-0.100611 0.475248 0.244853 
-0.100573 0.475070 0.247424 
-0.100568 0.487333 0.317006 
-0.100567 0.487328 0.296038 
-0.100558 0.513773 0.463170 
-0.100548 0.474950 0.234166 
-0.100539 0.487191 0.307835 
-0.100533 0.474879 0.249999 
-0.100523 0.513590 0.475362 
-0.100521 0.474825 0.236720 
-0.100492 0.513433 0.471067 
-0.100489 0.474675 0.252576 
-0.100468 0.474575 0.215977 
-0.100461 0.474540 0.218502 
-0.100456 0.513249 0.466782 
-0.100451 0.474493 0.221031 
-0.100451 0.513223 0.505015 
-0.100405 0.474277 0.228640 
-0.100398 0.486507 0.316469 
-0.100395 0.474228 0.257740 
-0.100389 0.474198 0.246970 
-0.100388 0.542263 0.509778 
-0.100380 0.512864 0.474690 
-0.100361 0.474069 0.233731 
-0.100343 0.473985 0.260325 
-0.100343 0.542022 0.487687 
-0.100335 0.473946 0.236282 
-0.100331 0.541956 0.527623 
-0.100313 0.512518 0.491275 
-0.100312 0.512517 0.504321 
-0.100306 0.473810 0.238836 
-0.100305 0.486058 0.298206 
-0.100302 0.512462 0.508688 
-0.100293 0.485996 0.304094 
-0.100275 0.473662 0.241393 
-0.100274 0.473658 0.203023 
-0.100272 0.473648 0.218091 
-0.100263 0.473603 0.220616 
-0.100260 0.473592 0.254691 
-0.100250 0.473545 0.223145 
-0.100229 0.450648 0.161218 
-0.100198 0.473296 0.230754 
-0.100173 0.473178 0.268099 
-0.100170 0.526044 0.544922 
-0.100164 0.473139 0.249083 
-0.100162 0.511746 0.486264 
-0.100145 0.511662 0.481947 
-0.100123 0.511550 0.477641 
-0.100121 0.472933 0.238393 
-0.100119 0.450156 0.156541 
-0.100118 0.485150 0.318633 
-0.100117 0.485144 0.286000 
-0.100115 0.540790 0.512862 
-0.100113 0.511500 0.449098 
-0.100107 0.472869 0.262437 
-0.100090 0.472787 0.205133 
-0.100083 0.472756 0.202636 
-0.100074 0.472713 0.220202 
-0.100062 0.472657 0.222727 
-0.100051 0.472602 0.265024 
-0.100048 0.472588 0.225255 
-0.100046 0.484803 0.294504 
-0.100038 0.484764 0.288662 
-0.100029 0.472500 0.256800 
-0.100024 0.484692 0.306256 
-0.100021 0.511029 0.485582 
-0.100005 0.484605 0.321336 
-0.100004 0.510941 0.481269 
-0.099988 0.472307 0.232862 
-0.099982 0.510826 0.476966 
-0.099978 0.472262 0.259379 
-0.099970 0.449485 0.158551 
-0.099959 0.484379 0.297176 
-0.099938 0.472071 0.251191 
-0.099935 0.472056 0.237951 
-0.099921 0.510516 0.468390 
-0.099910 0.510459 0.436452 
-0.099899 0.471886 0.204743 
-0.099883 0.471809 0.199760 
-0.099881 0.510313 0.452024 
-0.099881 0.510311 0.484900 
-0.099874 0.471768 0.222308 
-0.099871 0.471751 0.197275 
-0.099869 0.483942 0.299850 
-0.099864 0.483917 0.288158 
-0.099863 0.510220 0.480590 
-0.099860 0.471702 0.224832 
-0.099842 0.483811 0.282347 
-0.099836 0.510084 0.440009 
-0.099835 0.471583 0.245608 
-0.099832 0.510060 0.432260 
-0.099790 0.509848 0.455607 
-0.099783 0.483525 0.290819 
-0.099777 0.471308 0.234966 
-0.099763 0.509708 0.435809 
-0.099761 0.509698 0.492861 
-0.099753 0.509659 0.488534 
-0.099752 0.483379 0.308412 
-0.099739 0.509588 0.463452 
-0.099724 0.523703 0.547253 
-0.099719 0.471035 0.240054 
-0.099715 0.471017 0.209343 
-0.099713 0.471008 0.206845 
-0.099710 0.470995 0.253294 
-0.099707 0.538585 0.515256 
-0.099695 0.509363 0.459195 
-0.099686 0.470880 0.242603 
-0.099684 0.509305 0.431620 
-0.099656 0.470737 0.226934 
-0.099646 0.509111 0.454948 
-0.099630 0.482788 0.276071 
-0.099609 0.482681 0.290311 
-0.099600 0.508877 0.427444 
-0.099592 0.482600 0.284500 
-0.099579 0.470375 0.160873 
-0.099562 0.482456 0.278711 
-0.099551 0.508628 0.458532 
-0.099543 0.508586 0.438717 
-0.099525 0.470120 0.208944 
-0.099525 0.470119 0.211442 
-0.099519 0.482250 0.272947 
-0.099518 0.470085 0.203961 
-0.099500 0.470001 0.198995 
-0.099479 0.482057 0.310563 
-0.099466 0.508195 0.442273 
-0.099454 0.469783 0.191578 
-0.099452 0.508124 0.462121 
-0.099450 0.469764 0.229032 
-0.099403 0.481686 0.250602 
-0.099396 0.481653 0.261495 
-0.099385 0.507779 0.469983 
-0.099350 0.507598 0.465714 
-0.099347 0.507583 0.495122 
-0.099333 0.469210 0.206056 
-0.099319 0.469147 0.201089 
-0.099295 0.469035 0.196139 
-0.099280 0.468961 0.193671 
-0.099240 0.507040 0.445181 
-0.099174 0.506702 0.440974 
-0.099165 0.480531 0.263639 
-0.099140 0.480410 0.280362 
-0.099132 0.506485 0.472912 
-0.099105 0.506346 0.406744 
-0.099069 0.467965 0.190837 
-0.099048 0.467865 0.188381 
-0.099034 0.479899 0.277234 
-0.099028 0.505956 0.440325 
-0.098957 0.479526 0.254885 
-0.098949 0.505553 0.443876 
-0.098931 0.479400 0.265777 
-0.098916 0.505383 0.420748 
-0.098896 0.467147 0.192922 
-0.098863 0.534029 0.524466 
-0.098855 0.466955 0.188015 
-0.098778 0.478657 0.254423 
-0.098763 0.504600 0.408991 
-0.098744 0.466429 0.178255 
-0.098732 0.478432 0.257019 
-0.098721 0.478380 0.246203 
-0.098720 0.466319 0.195004 
-0.098696 0.478260 0.267910 
-0.098611 0.465803 0.182767 
-0.098597 0.465736 0.159287 
-0.098582 0.465663 0.180334 
-0.098576 0.503647 0.446119 
-0.098575 0.477674 0.243177 
-0.098562 0.503576 0.422991 
-0.098512 0.465332 0.192173 
-0.098504 0.477329 0.259148 
-0.098470 0.465135 0.187282 
-0.098453 0.477080 0.261745 
-0.098445 0.465018 0.184843 
-0.098438 0.502942 0.430024 
-0.098419 0.502844 0.411231 
-0.098418 0.464889 0.182409 
-0.098414 0.502819 0.422355 
-0.098374 0.476699 0.256088 
-0.098363 0.502557 0.375481 
-0.098350 0.502493 0.403648 
-0.098342 0.476542 0.266948 
-0.098321 0.502343 0.418217 
-0.098300 0.464331 0.189354 
-0.098283 0.476257 0.250457 
-0.098252 0.464106 0.184480 
-0.098224 0.501845 0.432902 
-0.098221 0.475957 0.263868 
-0.098213 0.475921 0.242285 
-0.098207 0.475892 0.221446 
-0.098207 0.501760 0.425226 
-0.098202 0.501734 0.378306 
-0.098194 0.463834 0.179625 
-0.098145 0.501444 0.351171 
-0.098103 0.475387 0.249999 
-0.098082 0.501123 0.398948 
-0.098073 0.501078 0.413463 
-0.098054 0.529655 0.480765 
-0.098049 0.463147 0.169972 
-0.098049 0.500952 0.402410 
-0.098011 0.474941 0.223564 
-0.098007 0.500737 0.387993 
-0.097999 0.474881 0.244403 
-0.097976 0.529236 0.510758 
-0.097968 0.462763 0.176854 
-0.097932 0.462596 0.174443 
-0.097924 0.500316 0.412833 
-0.097898 0.500183 0.373707 
-0.097894 0.462417 0.172036 
-0.097884 0.500109 0.380534 
-0.097882 0.474317 0.238836 
-0.097861 0.499992 0.405256 
-0.097850 0.499936 0.353397 
-0.097830 0.513756 0.466782 
-0.097813 0.473981 0.225678 
-0.097782 0.473832 0.246516 
-0.097726 0.499303 0.415687 
-0.097717 0.499258 0.383355 
-0.097701 0.473439 0.238393 
-0.097681 0.499071 0.390215 
-0.097671 0.527587 0.483111 
-0.097668 0.461346 0.160076 
-0.097665 0.512888 0.482626 
-0.097613 0.473012 0.227787 
-0.097587 0.512480 0.469729 
-0.097578 0.498549 0.362358 
-0.097576 0.498536 0.379337 
-0.097564 0.498475 0.382754 
-0.097553 0.498418 0.355617 
-0.097544 0.460760 0.173750 
-0.097528 0.498292 0.389607 
-0.097520 0.498252 0.407475 
-0.097505 0.460578 0.171352 
-0.097504 0.498171 0.393043 
-0.097480 0.472369 0.217270 
-0.097477 0.498030 0.396485 
-0.097472 0.460420 0.159755 
-0.097464 0.460385 0.168958 
-0.097461 0.472273 0.222308 
-0.097430 0.497789 0.365155 
-0.097411 0.472034 0.229893 
-0.097395 0.497612 0.385571 
-0.097383 0.541487 0.437627 
-0.097353 0.497395 0.392430 
-0.097349 0.459842 0.173404 
-0.097303 0.471511 0.206845 
-0.097296 0.471476 0.216859 
-0.097288 0.471436 0.219372 
-0.097278 0.497015 0.367953 
-0.097274 0.496993 0.364571 
-0.097266 0.496951 0.361196 
-0.097264 0.471318 0.224410 
-0.097257 0.496907 0.381550 
-0.097254 0.496890 0.357829 
-0.097229 0.510601 0.459857 
-0.097226 0.459257 0.166235 
-0.097223 0.496735 0.388389 
-0.097219 0.496710 0.351117 
-0.097208 0.471048 0.231993 
-0.097184 0.470932 0.234528 
-0.097174 0.496483 0.395254 
-0.097124 0.496226 0.370750 
-0.097123 0.496221 0.367365 
-0.097120 0.470623 0.208944 
-0.097103 0.496121 0.337786 
-0.097089 0.496050 0.384361 
-0.097064 0.509735 0.471328 
-0.097060 0.524285 0.439529 
-0.097044 0.539603 0.440023 
-0.096962 0.495400 0.363403 
-0.096954 0.509158 0.474939 
-0.096935 0.469726 0.211039 
-0.096935 0.469725 0.208545 
-0.096932 0.469712 0.206056 
-0.096921 0.457820 0.170326 
-0.096882 0.469469 0.226081 
-0.096879 0.494974 0.346640 
-0.096851 0.494831 0.343310 
-0.096820 0.469166 0.186293 
-0.096819 0.494669 0.339989 
-0.096812 0.494634 0.372953 
-0.096766 0.494398 0.352749 
-0.096748 0.468819 0.213130 
-0.096741 0.468785 0.203180 
-0.096713 0.522414 0.540643 
-0.096703 0.537708 0.442411 
-0.096693 0.468554 0.193297 
-0.096684 0.456701 0.167606 
-0.096682 0.468499 0.228171 
-0.096654 0.468366 0.188381 
-0.096620 0.521913 0.517061 
-0.096609 0.493594 0.352175 
-0.096598 0.468092 0.159921 
-0.096582 0.507201 0.433238 
-0.096555 0.467883 0.202789 
-0.096533 0.493209 0.342185 
-0.096522 0.467724 0.195382 
-0.096513 0.506839 0.436779 
-0.096501 0.493042 0.338870 
-0.096487 0.467556 0.190466 
-0.096479 0.467519 0.230256 
-0.096417 0.467215 0.183126 
-0.096404 0.492548 0.344941 
-0.096397 0.455344 0.162537 
-0.096361 0.535803 0.444791 
-0.096347 0.455109 0.160179 
-0.096331 0.505882 0.420748 
-0.096272 0.491872 0.347697 
-0.096264 0.491834 0.331713 
-0.096227 0.491646 0.319155 
-0.096202 0.454421 0.162207 
-0.096173 0.466036 0.199542 
-0.096169 0.491348 0.315899 
-0.096162 0.465979 0.197081 
-0.096155 0.504962 0.439026 
-0.096148 0.465911 0.194625 
-0.096131 0.504832 0.423627 
-0.096123 0.519227 0.505495 
-0.096121 0.491100 0.321879 
-0.096107 0.491032 0.312652 
-0.096104 0.491015 0.331162 
-0.096085 0.504590 0.434840 
-0.096065 0.490819 0.318618 
-0.096059 0.490787 0.327879 
-0.096054 0.453724 0.164233 
-0.096044 0.453676 0.155162 
-0.096017 0.533888 0.447162 
-0.096000 0.504145 0.446119 
-0.095987 0.465133 0.199156 
-0.095985 0.490409 0.333897 
-0.095944 0.464922 0.191798 
-0.095939 0.518235 0.462200 
-0.095938 0.503819 0.441917 
-0.095919 0.503720 0.461699 
-0.095916 0.503705 0.449673 
-0.095903 0.453009 0.157183 
-0.095902 0.464721 0.186915 
-0.095899 0.489967 0.327330 
-0.095898 0.489964 0.339934 
-0.095889 0.489919 0.285324 
-0.095878 0.489862 0.308887 
-0.095865 0.503438 0.430024 
-0.095852 0.517760 0.508489 
-0.095851 0.464472 0.182051 
-0.095850 0.489717 0.324060 
-0.095828 0.503244 0.453231 
-0.095797 0.489450 0.320797 
-0.095784 0.503011 0.425865 
-0.095784 0.489379 0.330058 
-0.095760 0.452334 0.159202 
-0.095729 0.502721 0.437078 
-0.095721 0.517053 0.507794 
-0.095717 0.502662 0.444807 
-0.095715 0.489028 0.308361 
-0.095704 0.488974 0.336074 
-0.095689 0.516884 0.516569 
-0.095654 0.502331 0.440612 
-0.095649 0.488692 0.287500 
-0.095618 0.488535 0.311062 
-0.095600 0.463258 0.176854 
-0.095566 0.463091 0.174443 
-0.095564 0.451409 0.158877 
-0.095510 0.501573 0.413463 
-0.095510 0.515915 0.448118 
-0.095506 0.487961 0.332230 
-0.095486 0.501446 0.402410 
-0.095481 0.487833 0.304616 
-0.095457 0.501297 0.455462 
-0.095456 0.487703 0.310532 
-0.095447 0.515574 0.510781 
-0.095443 0.462498 0.178917 
-0.095419 0.450726 0.160889 
-0.095415 0.462360 0.195551 
-0.095411 0.462341 0.176504 
-0.095407 0.487457 0.289670 
-0.095357 0.487198 0.313231 
-0.095316 0.514869 0.510084 
-0.095300 0.514780 0.514466 
-0.095293 0.514744 0.427708 
-0.095291 0.514732 0.451056 
-0.095273 0.450035 0.162897 
-0.095263 0.500276 0.408727 
-0.095262 0.529692 0.447606 
-0.095257 0.461595 0.166903 
-0.095256 0.486684 0.325137 
-0.095256 0.486680 0.315932 
-0.095254 0.461582 0.178562 
-0.095243 0.486616 0.300888 
-0.095209 0.499990 0.423308 
-0.095184 0.499860 0.376522 
-0.095170 0.499788 0.359561 
-0.095165 0.486218 0.297692 
-0.095157 0.499717 0.404634 
-0.095151 0.486148 0.318633 
-0.095149 0.461071 0.171352 
-0.095109 0.460877 0.168958 
-0.095104 0.499440 0.393655 
-0.095062 0.485690 0.306256 
-0.095038 0.499093 0.372524 
-0.095014 0.498967 0.382754 
-0.094998 0.485366 0.291326 
-0.094995 0.513136 0.474017 
-0.094990 0.485323 0.303049 
-0.094971 0.498744 0.407475 
-0.094963 0.512960 0.526246 
-0.094959 0.460151 0.171010 
-0.094929 0.498519 0.410945 
-0.094883 0.484779 0.320792 
-0.094883 0.498281 0.375332 
-0.094876 0.498242 0.361777 
-0.094876 0.498242 0.378739 
-0.094873 0.459733 0.157065 
-0.094849 0.498104 0.385571 
-0.094833 0.484520 0.290819 
-0.094790 0.484303 0.279204 
-0.094782 0.497748 0.395869 
-0.094781 0.511975 0.511663 
-0.094753 0.484114 0.293482 
-0.094752 0.497589 0.399315 
-0.094750 0.484099 0.299332 
-0.094731 0.497484 0.364571 
-0.094728 0.459033 0.168282 
-0.094715 0.497398 0.381550 
-0.094697 0.497301 0.354469 
-0.094682 0.497226 0.388389 
-0.094677 0.497201 0.351117 
-0.094651 0.483593 0.284500 
-0.094623 0.483449 0.278711 
-0.094618 0.511097 0.476290 
-0.094592 0.496753 0.413156 
-0.094588 0.483270 0.292970 
-0.094584 0.496711 0.367365 
-0.094552 0.496540 0.384361 
-0.094534 0.496446 0.387780 
-0.094520 0.510566 0.451368 
-0.094512 0.496333 0.391206 
-0.094498 0.482813 0.301481 
-0.094486 0.482750 0.234628 
-0.094474 0.496132 0.343873 
-0.094462 0.482624 0.237207 
-0.094414 0.482384 0.272463 
-0.094412 0.482370 0.286647 
-0.094407 0.509959 0.416238 
-0.094389 0.482251 0.280858 
-0.094359 0.509697 0.419756 
-0.094353 0.482069 0.275093 
-0.094351 0.457203 0.158469 
-0.094347 0.495463 0.346640 
-0.094342 0.482011 0.295116 
-0.094336 0.481984 0.289296 
-0.094319 0.481893 0.283500 
-0.094305 0.481825 0.269353 
-0.094289 0.481740 0.277726 
-0.094288 0.495158 0.339989 
-0.094262 0.481604 0.239350 
-0.094254 0.494978 0.415358 
-0.094246 0.481525 0.271978 
-0.094244 0.509076 0.513226 
-0.094185 0.481212 0.274605 
-0.094159 0.456276 0.158148 
-0.094093 0.480743 0.297257 
-0.094093 0.480740 0.291437 
-0.094084 0.494082 0.352175 
-0.094080 0.494064 0.323502 
-0.094078 0.480667 0.271493 
-0.094038 0.493844 0.345507 
-0.094019 0.455595 0.160179 
-0.093972 0.493497 0.361650 
-0.093964 0.507565 0.516187 
-0.093962 0.493443 0.358293 
-0.093948 0.493370 0.354944 
-0.093909 0.493165 0.348267 
-0.093888 0.479694 0.241047 
-0.093877 0.454906 0.162207 
-0.093855 0.492884 0.341622 
-0.093848 0.479488 0.293571 
-0.093836 0.506869 0.515480 
-0.093828 0.492737 0.364426 
-0.093815 0.492673 0.325694 
-0.093787 0.479178 0.259617 
-0.093781 0.506575 0.436133 
-0.093774 0.506538 0.443876 
-0.093711 0.506195 0.439675 
-0.093680 0.491963 0.367202 
-0.093571 0.505439 0.475159 
-0.093569 0.478062 0.261745 
-0.093554 0.491303 0.318618 
-0.093553 0.505345 0.518434 
-0.093549 0.491272 0.327879 
-0.093517 0.477799 0.264346 
-0.093497 0.491003 0.315366 
-0.093463 0.477523 0.266948 
-0.093436 0.490681 0.330610 
-0.093419 0.490593 0.276826 
-0.093407 0.477237 0.250457 
-0.093356 0.490259 0.279491 
-0.093348 0.476937 0.263868 
-0.093321 0.490076 0.333342 
-0.093290 0.503922 0.430024 
-0.093280 0.489862 0.330058 
-0.093255 0.451891 0.158877 
-0.093251 0.476437 0.234166 
-0.093237 0.489635 0.290677 
-0.093230 0.476333 0.260799 
-0.093225 0.503573 0.433548 
-0.093211 0.503494 0.425865 
-0.093197 0.476160 0.252576 
-0.093192 0.503395 0.477398 
-0.093170 0.476023 0.241839 
-0.093149 0.489175 0.287500 
-0.093127 0.489056 0.281666 
-0.093126 0.475802 0.265986 
-0.093114 0.451208 0.160889 
-0.093073 0.488776 0.301926 
-0.093058 0.488697 0.284332 
-0.093053 0.475429 0.236282 
-0.093048 0.488643 0.335515 
-0.093010 0.488443 0.332230 
-0.092999 0.488385 0.292849 
-0.092995 0.475131 0.218091 
-0.092985 0.488315 0.304616 
-0.092984 0.475074 0.254691 
-0.092971 0.450516 0.162897 
-0.092966 0.474982 0.243953 
-0.092951 0.502093 0.506185 
-0.092932 0.474808 0.246516 
-0.092931 0.501982 0.424587 
-0.092895 0.487840 0.307308 
-0.092855 0.474413 0.238393 
-0.092850 0.516283 0.398888 
-0.092824 0.487468 0.272239 
-0.092814 0.474206 0.254225 
-0.092812 0.501342 0.479627 
-0.092811 0.474192 0.220202 
-0.092803 0.501291 0.412833 
-0.092770 0.473979 0.256800 
-0.092761 0.473933 0.246062 
-0.092759 0.487125 0.295016 
-0.092743 0.500966 0.405256 
-0.092704 0.500757 0.408727 
-0.092701 0.515452 0.496991 
-0.092685 0.473549 0.251191 
-0.092677 0.486698 0.297692 
-0.092669 0.486655 0.252418 
-0.092654 0.473388 0.240500 
-0.092650 0.473370 0.214756 
-0.092644 0.473337 0.253760 
-0.092643 0.486518 0.309472 
-0.092641 0.530680 0.394994 
-0.092626 0.473245 0.222308 
-0.092615 0.500276 0.415687 
-0.092613 0.473178 0.224832 
-0.092610 0.514948 0.439023 
-0.092608 0.486332 0.315394 
-0.092592 0.514847 0.394188 
-0.092573 0.500049 0.486824 
-0.092560 0.486082 0.321336 
-0.092553 0.472875 0.248167 
-0.092553 0.472875 0.258906 
-0.092548 0.486018 0.312164 
-0.092540 0.485978 0.249354 
-0.092517 0.485856 0.297176 
-0.092516 0.499743 0.330051 
-0.092515 0.485845 0.291326 
-0.092507 0.485802 0.318092 
-0.092478 0.472489 0.211844 
-0.092473 0.499508 0.379337 
-0.092434 0.485417 0.299850 
-0.092430 0.499279 0.481847 
-0.092430 0.472246 0.255862 
-0.092429 0.485392 0.288158 
-0.092423 0.472211 0.226934 
-0.092378 0.498998 0.410945 
-0.092363 0.471901 0.234528 
-0.092349 0.498839 0.399934 
-0.092345 0.471808 0.250267 
-0.092344 0.528977 0.397341 
-0.092336 0.471762 0.261006 
-0.092315 0.498658 0.403389 
-0.092302 0.471592 0.208944 
-0.092302 0.471591 0.211442 
-0.092302 0.498584 0.355043 
-0.092300 0.471580 0.206451 
-0.092287 0.471513 0.218958 
-0.092284 0.498488 0.417902 
-0.092284 0.498487 0.351687 
-0.092280 0.471477 0.242153 
-0.092278 0.498456 0.406849 
-0.092276 0.484592 0.293482 
-0.092253 0.498323 0.332265 
-0.092237 0.498234 0.344999 
-0.092235 0.498226 0.395869 
-0.092232 0.471234 0.229032 
-0.092188 0.484127 0.302004 
-0.092179 0.497920 0.361196 
-0.092171 0.497876 0.381550 
-0.092170 0.470917 0.160556 
-0.092165 0.497847 0.325666 
-0.092156 0.497799 0.384966 
-0.092152 0.497778 0.354469 
-0.092150 0.483926 0.278711 
-0.092140 0.497712 0.335025 
-0.092134 0.497679 0.351117 
-0.092130 0.483822 0.253662 
-0.092126 0.470692 0.208545 
-0.092124 0.470681 0.213536 
-0.092119 0.470657 0.216038 
-0.092112 0.470620 0.218543 
-0.092112 0.497560 0.347773 
-0.092103 0.470571 0.221052 
-0.092091 0.470510 0.223565 
-0.092076 0.470436 0.244247 
-0.092076 0.470435 0.226081 
-0.092063 0.497295 0.398696 
-0.092051 0.497230 0.413156 
-0.092045 0.527264 0.399680 
-0.092039 0.470249 0.231125 
-0.092019 0.497056 0.357252 
-0.092003 0.496973 0.353896 
-0.091993 0.470009 0.183842 
-0.091962 0.496749 0.347206 
-0.091942 0.469750 0.203180 
-0.091928 0.469680 0.220633 
-0.091921 0.482727 0.280858 
-0.091916 0.469620 0.223142 
-0.091902 0.469548 0.225654 
-0.091897 0.496400 0.370159 
-0.091896 0.496393 0.366777 
-0.091891 0.496366 0.363403 
-0.091888 0.496349 0.401521 
-0.091886 0.469463 0.228171 
-0.091873 0.496270 0.337230 
-0.091870 0.496253 0.356675 
-0.091867 0.496234 0.383756 
-0.091859 0.469330 0.188381 
-0.091838 0.469217 0.185930 
-0.091773 0.468888 0.212723 
-0.091769 0.468867 0.215216 
-0.091755 0.495634 0.339989 
-0.091749 0.495598 0.372953 
-0.091746 0.468752 0.197847 
-0.091743 0.495569 0.376345 
-0.091734 0.495518 0.359454 
-0.091730 0.510053 0.438717 
-0.091721 0.495450 0.356098 
-0.091691 0.481518 0.283000 
-0.091607 0.468039 0.180688 
-0.091604 0.494814 0.368976 
-0.091602 0.494807 0.372358 
-0.091595 0.494769 0.362234 
-0.091588 0.467943 0.202398 
-0.091586 0.494718 0.358874 
-0.091580 0.467900 0.199929 
-0.091571 0.480888 0.244070 
-0.091565 0.524517 0.372824 
-0.091561 0.494583 0.385954 
-0.091556 0.467778 0.195004 
-0.091541 0.494477 0.389369 
-0.091522 0.467607 0.190096 
-0.091502 0.467504 0.187648 
-0.091484 0.494170 0.342185 
-0.091457 0.494021 0.368385 
-0.091454 0.467260 0.182767 
-0.091453 0.480265 0.262692 
-0.091448 0.493971 0.361650 
-0.091419 0.493815 0.307751 
-0.091418 0.467072 0.204477 
-0.091402 0.479998 0.265300 
-0.091397 0.479974 0.273628 
-0.091390 0.508164 0.440974 
-0.091375 0.493577 0.392176 
-0.091362 0.466789 0.192173 
-0.091348 0.479717 0.267910 
-0.091344 0.466695 0.189725 
-0.091332 0.523181 0.400206 
-0.091310 0.493227 0.371169 
-0.091307 0.493211 0.364426 
-0.091301 0.466473 0.184843 
-0.091284 0.522910 0.375144 
-0.091282 0.522896 0.378618 
-0.091267 0.522809 0.385586 
-0.091266 0.479287 0.240605 
-0.091259 0.466263 0.158969 
-0.091250 0.507386 0.460123 
-0.091245 0.466192 0.206552 
-0.091231 0.492802 0.391560 
-0.091228 0.492784 0.277795 
-0.091214 0.466032 0.196699 
-0.091200 0.465961 0.194246 
-0.091195 0.492605 0.319155 
-0.091184 0.465879 0.191798 
-0.091173 0.492490 0.309939 
-0.091160 0.492417 0.373952 
-0.091151 0.465709 0.172720 
-0.091129 0.478564 0.270039 
-0.091075 0.506409 0.455219 
-0.091071 0.465303 0.208622 
-0.091023 0.478008 0.229493 
-0.091006 0.491588 0.279980 
-0.091005 0.464965 0.174789 
-0.091003 0.477903 0.247878 
-0.090997 0.521264 0.380930 
-0.090968 0.491380 0.300267 
-0.090966 0.464764 0.186549 
-0.090943 0.464649 0.160719 
-0.090942 0.464644 0.184118 
-0.090931 0.477525 0.239720 
-0.090926 0.477502 0.253038 
-0.090926 0.491155 0.312122 
-0.090894 0.505406 0.462368 
-0.090888 0.464368 0.179271 
-0.090885 0.477282 0.255622 
-0.090870 0.477206 0.244853 
-0.090862 0.490808 0.376134 
-0.090858 0.464212 0.176854 
-0.090852 0.490755 0.379518 
-0.090837 0.490672 0.324060 
-0.090835 0.477020 0.231615 
-0.090822 0.490590 0.386308 
-0.090809 0.463961 0.188613 
-0.090800 0.476836 0.249999 
-0.090798 0.504872 0.465949 
-0.090760 0.476631 0.252576 
-0.090737 0.463596 0.181334 
-0.090734 0.476493 0.241839 
-0.090731 0.490099 0.326782 
-0.090729 0.490086 0.302444 
-0.090709 0.489981 0.308361 
-0.090699 0.489927 0.336074 
-0.090684 0.476231 0.228640 
-0.090678 0.463292 0.176504 
-0.090677 0.489811 0.314298 
-0.090675 0.476182 0.257740 
-0.090662 0.489729 0.332786 
-0.090657 0.489701 0.293357 
-0.090650 0.463149 0.190674 
-0.090645 0.476022 0.233731 
-0.090634 0.489577 0.320256 
-0.090620 0.519104 0.400704 
-0.090618 0.489487 0.311062 
-0.090581 0.489287 0.317006 
-0.090579 0.489277 0.326234 
-0.090550 0.489122 0.381693 
-0.090545 0.475496 0.223145 
-0.090532 0.489023 0.322970 
-0.090531 0.475426 0.225678 
-0.090500 0.488851 0.298722 
-0.090497 0.475246 0.230754 
-0.090489 0.462328 0.192732 
-0.090470 0.488693 0.328954 
-0.090463 0.488654 0.310532 
-0.090453 0.475016 0.235843 
-0.090431 0.488481 0.338245 
-0.090423 0.488438 0.295527 
-0.090403 0.474754 0.212650 
-0.090400 0.474735 0.215163 
-0.090391 0.461825 0.168958 
-0.090370 0.488148 0.313231 
-0.090361 0.474536 0.225255 
-0.090361 0.502439 0.447695 
-0.090344 0.488008 0.298206 
-0.090328 0.487923 0.319174 
-0.090327 0.461498 0.194785 
-0.090319 0.487873 0.328402 
-0.090284 0.461282 0.173404 
-0.090267 0.487593 0.295016 
-0.090262 0.487565 0.300888 
-0.090223 0.473809 0.217270 
-0.090210 0.460902 0.168620 
-0.090208 0.487277 0.331119 
-0.090187 0.487159 0.291834 
-0.090177 0.487108 0.303571 
-0.090177 0.501415 0.466832 
-0.090174 0.487090 0.286000 
-0.090138 0.460535 0.175454 
-0.090087 0.473094 0.182459 
-0.090081 0.460245 0.161481 
-0.090068 0.460175 0.170668 
-0.090055 0.472926 0.204352 
-0.090046 0.515813 0.401782 
-0.090045 0.472873 0.219372 
-0.090022 0.486269 0.303049 
-0.089991 0.486103 0.279696 
-0.089990 0.459779 0.177499 
-0.089976 0.500301 0.438001 
-0.089970 0.500266 0.473988 
-0.089954 0.485903 0.293993 
-0.089946 0.485859 0.288158 
-0.089945 0.459549 0.163526 
-0.089937 0.472307 0.184559 
-0.089924 0.459440 0.172712 
-0.089890 0.472057 0.208944 
-0.089887 0.472046 0.206451 
-0.089887 0.459253 0.170326 
-0.089887 0.472043 0.213943 
-0.089876 0.471986 0.201476 
-0.089875 0.471979 0.218958 
-0.089865 0.471928 0.221471 
-0.089848 0.459054 0.167944 
-0.089815 0.499406 0.469050 
-0.089807 0.458844 0.165568 
-0.089802 0.458818 0.156431 
-0.089795 0.485044 0.273432 
-0.089786 0.471512 0.186655 
-0.089775 0.499186 0.378739 
-0.089768 0.484898 0.281851 
-0.089736 0.484724 0.276071 
-0.089732 0.498943 0.476886 
-0.089726 0.471197 0.252363 
-0.089712 0.471122 0.216038 
-0.089701 0.484536 0.284500 
-0.089694 0.471030 0.198612 
-0.089674 0.484391 0.278711 
-0.089637 0.484191 0.264585 
-0.089637 0.498415 0.440215 
-0.089633 0.470707 0.188748 
-0.089577 0.483866 0.275582 
-0.089559 0.483770 0.289804 
-0.089547 0.470256 0.208147 
-0.089543 0.483684 0.284000 
-0.089531 0.483618 0.250602 
-0.089519 0.470110 0.254453 
-0.089509 0.470058 0.195761 
-0.089493 0.483413 0.253204 
-0.089488 0.457215 0.158148 
-0.089478 0.469894 0.190837 
-0.089474 0.483310 0.286647 
-0.089452 0.483191 0.280858 
-0.089442 0.512355 0.360807 
-0.089426 0.483051 0.266731 
-0.089376 0.469359 0.210233 
-0.089373 0.482764 0.269353 
-0.089372 0.469338 0.205266 
-0.089366 0.469309 0.202789 
-0.089358 0.469268 0.200316 
-0.089357 0.482679 0.277726 
-0.089355 0.456533 0.160179 
-0.089348 0.469215 0.197847 
-0.089321 0.469071 0.192922 
-0.089317 0.482461 0.286143 
-0.089310 0.469015 0.256539 
-0.089291 0.482322 0.255347 
-0.089287 0.511465 0.356835 
-0.089265 0.468775 0.259097 
-0.089264 0.456069 0.164566 
-0.089239 0.468639 0.183126 
-0.089220 0.455843 0.162207 
-0.089213 0.481902 0.268872 
-0.089158 0.481604 0.271493 
-0.089130 0.481450 0.254885 
-0.089124 0.455356 0.157505 
-0.089088 0.467850 0.185205 
-0.089071 0.495269 0.372358 
-0.088992 0.454677 0.159528 
-0.088978 0.467267 0.175481 
-0.088956 0.467156 0.189725 
-0.088936 0.467051 0.187282 
-0.088926 0.480351 0.257019 
-0.088908 0.466904 0.170648 
-0.088857 0.453990 0.161548 
-0.088833 0.466510 0.177555 
-0.088802 0.466345 0.175135 
-0.088801 0.466339 0.191798 
-0.088768 0.466168 0.172720 
-0.088742 0.508344 0.456544 
-0.088721 0.479244 0.259148 
-0.088701 0.479137 0.235035 
-0.088684 0.479042 0.250914 
-0.088675 0.478994 0.261745 
-0.088658 0.465590 0.177204 
-0.088655 0.507846 0.460123 
-0.088626 0.478730 0.264346 
-0.088591 0.478542 0.245303 
-0.088559 0.478365 0.232045 
-0.088514 0.478124 0.237158 
-0.088490 0.492036 0.359897 
-0.088470 0.477886 0.216384 
-0.088466 0.477866 0.263868 
-0.088464 0.491894 0.353212 
-0.088443 0.477741 0.255622 
-0.088396 0.477485 0.247424 
-0.088384 0.506292 0.397940 
-0.088297 0.476953 0.218502 
-0.088297 0.476950 0.241839 
-0.088288 0.476906 0.221031 
-0.088274 0.505666 0.349501 
-0.088268 0.505628 0.438376 
-0.088266 0.476786 0.244403 
-0.088239 0.476639 0.257740 
-0.088230 0.476590 0.231184 
-0.088227 0.490574 0.317543 
-0.088225 0.490564 0.339371 
-0.088216 0.490514 0.365429 
-0.088211 0.490486 0.362075 
-0.088198 0.476419 0.249541 
-0.088161 0.476220 0.238836 
-0.088161 0.476216 0.252114 
-0.088134 0.476071 0.241393 
-0.088077 0.489740 0.296038 
-0.088065 0.462476 0.171352 
-0.088046 0.489571 0.354809 
-0.088046 0.489569 0.335515 
-0.087996 0.504071 0.444807 
-0.087981 0.489206 0.319715 
-0.087962 0.489102 0.341542 
-0.087960 0.475130 0.254225 
-0.087947 0.475060 0.222727 
-0.087941 0.475030 0.243503 
-0.087919 0.474912 0.192689 
-0.087918 0.474903 0.256800 
-0.087874 0.488611 0.278025 
-0.087859 0.474589 0.235405 
-0.087847 0.488464 0.298206 
-0.087797 0.474253 0.202249 
-0.087769 0.474100 0.224832 
-0.087765 0.474080 0.194795 
-0.087754 0.474020 0.227361 
-0.087733 0.487828 0.321881 
-0.087721 0.487762 0.347013 
-0.087661 0.502154 0.447035 
-0.087658 0.487413 0.280189 
-0.087648 0.502078 0.401791 
-0.087642 0.473413 0.209343 
-0.087641 0.473410 0.211844 
-0.087640 0.473403 0.206845 
-0.087638 0.473395 0.214350 
-0.087636 0.460223 0.165902 
-0.087636 0.473381 0.204352 
-0.087632 0.460203 0.156748 
-0.087626 0.473327 0.219372 
-0.087621 0.473299 0.199378 
-0.087616 0.487178 0.300369 
-0.087610 0.473240 0.196897 
-0.087590 0.473131 0.226934 
-0.087585 0.473105 0.245155 
-0.087554 0.472937 0.231993 
-0.087552 0.486822 0.343137 
-0.087538 0.501446 0.343344 
-0.087503 0.459527 0.158791 
-0.087500 0.459508 0.167944 
-0.087475 0.472510 0.211442 
-0.087467 0.472471 0.216448 
-0.087460 0.472432 0.218958 
-0.087451 0.472381 0.221471 
-0.087441 0.486205 0.282347 
-0.087409 0.472153 0.229032 
-0.087389 0.485918 0.290819 
-0.087383 0.485884 0.302526 
-0.087375 0.485840 0.285000 
-0.087305 0.471596 0.206056 
-0.087301 0.471570 0.203570 
-0.087284 0.458371 0.165234 
-0.087274 0.471427 0.223565 
-0.087266 0.485232 0.267686 
-0.087241 0.458148 0.162867 
-0.087226 0.471166 0.231125 
-0.087213 0.484936 0.307883 
-0.087188 0.484795 0.322944 
-0.087177 0.470902 0.160238 
-0.087159 0.484636 0.272947 
-0.087154 0.484612 0.287151 
-0.087149 0.484580 0.304677 
-0.087141 0.470707 0.208147 
-0.087129 0.470643 0.178955 
-0.087124 0.484442 0.310563 
-0.087064 0.457220 0.162537 
-0.087058 0.484078 0.269834 
-0.087055 0.470245 0.188381 
-0.087041 0.470170 0.233213 
-0.087034 0.470132 0.185930 
-0.086986 0.469870 0.181042 
-0.086942 0.498034 0.402144 
-0.086937 0.483404 0.325090 
-0.086905 0.469432 0.190466 
-0.086886 0.469330 0.188015 
-0.086864 0.497590 0.394638 
-0.086848 0.482909 0.263639 
-0.086841 0.469089 0.183126 
-0.086780 0.468757 0.197464 
-0.086776 0.528960 0.325270 
-0.086767 0.468690 0.195004 
-0.086758 0.468638 0.175827 
-0.086753 0.468610 0.192547 
-0.086745 0.455545 0.155162 
-0.086695 0.468299 0.185205 
-0.086685 0.482003 0.327230 
-0.086646 0.468031 0.180334 
-0.086622 0.467905 0.199542 
-0.086618 0.454875 0.157183 
-0.086617 0.467880 0.177905 
-0.086594 0.527851 0.374545 
-0.086586 0.527803 0.367597 
-0.086578 0.527750 0.364134 
-0.086545 0.527554 0.327606 
-0.086501 0.467253 0.182409 
-0.086489 0.454197 0.159202 
-0.086475 0.467112 0.179979 
-0.086473 0.467100 0.206552 
-0.086463 0.467045 0.201617 
-0.086375 0.526513 0.349810 
-0.086329 0.526233 0.376875 
-0.086326 0.526215 0.369927 
-0.086319 0.526177 0.366464 
-0.086313 0.526138 0.329935 
-0.086310 0.526118 0.363008 
-0.086308 0.466210 0.208622 
-0.086302 0.466175 0.203687 
-0.086250 0.479584 0.235035 
-0.086246 0.465871 0.174789 
-0.086227 0.479455 0.237597 
-0.086212 0.465692 0.172378 
-0.086186 0.465550 0.184118 
-0.086163 0.525222 0.359001 
-0.086146 0.525122 0.355564 
-0.086142 0.465310 0.210689 
-0.086127 0.525002 0.352135 
-0.086104 0.524863 0.348714 
-0.086064 0.524618 0.372250 
-0.086062 0.524606 0.379198 
-0.086060 0.524594 0.368787 
-0.086043 0.478430 0.239720 
-0.086029 0.524404 0.358442 
-0.086015 0.478276 0.242285 
-0.086006 0.464577 0.169634 
-0.085999 0.478187 0.255622 
-0.085985 0.478111 0.226523 
-0.085969 0.492459 0.401216 
-0.085939 0.464215 0.195551 
-0.085904 0.464026 0.174096 
-0.085870 0.463844 0.171694 
-0.085870 0.463840 0.185816 
-0.085849 0.477351 0.221031 
-0.085835 0.463651 0.169296 
-0.085827 0.477231 0.244403 
-0.085806 0.523049 0.344211 
-0.085805 0.523039 0.331199 
-0.085801 0.477085 0.257740 
-0.085796 0.463442 0.157700 
-0.085793 0.522968 0.381514 
-0.085765 0.463274 0.176154 
-0.085756 0.522742 0.318293 
-0.085755 0.491235 0.330058 
-0.085740 0.463140 0.190300 
-0.085722 0.522533 0.350479 
-0.085721 0.463039 0.187872 
-0.085708 0.490967 0.421918 
-0.085677 0.476398 0.223145 
-0.085670 0.462761 0.159755 
-0.085666 0.522193 0.370530 
-0.085663 0.462726 0.168958 
-0.085650 0.476243 0.228214 
-0.085632 0.476147 0.230754 
-0.085593 0.490306 0.428862 
-0.085588 0.462319 0.192353 
-0.085570 0.521608 0.333508 
-0.085543 0.475654 0.212650 
-0.085542 0.462072 0.161807 
-0.085535 0.521393 0.343122 
-0.085534 0.475603 0.202636 
-0.085523 0.521320 0.383823 
-0.085506 0.489812 0.332230 
-0.085497 0.489757 0.417168 
-0.085480 0.475300 0.246062 
-0.085473 0.521019 0.352786 
-0.085446 0.475114 0.248625 
-0.085413 0.461373 0.163856 
-0.085400 0.489199 0.402135 
-0.085378 0.474736 0.214756 
-0.085377 0.474729 0.204743 
-0.085368 0.520376 0.339190 
-0.085283 0.488530 0.325137 
-0.085278 0.460645 0.156748 
-0.085271 0.519786 0.372258 
-0.085263 0.519738 0.342033 
-0.085254 0.474042 0.250729 
-0.085251 0.519663 0.386124 
-0.085223 0.519495 0.355087 
-0.085218 0.473845 0.206845 
-0.085212 0.473809 0.216859 
-0.085201 0.488062 0.297692 
-0.085197 0.519335 0.335274 
-0.085165 0.487855 0.280189 
-0.085129 0.518918 0.364797 
-0.085128 0.487644 0.294504 
-0.085103 0.487501 0.282843 
-0.085097 0.487466 0.404298 
-0.085039 0.487134 0.285500 
-0.085021 0.518261 0.344328 
-0.084977 0.486778 0.299850 
-0.084973 0.486753 0.288158 
-0.084972 0.517961 0.357380 
-0.084959 0.517886 0.337567 
-0.084904 0.486359 0.290819 
-0.084808 0.458106 0.158148 
-0.084793 0.485723 0.406453 
-0.084751 0.485484 0.302004 
-0.084733 0.471147 0.208147 
-0.084719 0.516418 0.359667 
-0.084687 0.516226 0.336485 
-0.084682 0.457423 0.160179 
-0.084659 0.484957 0.256270 
-0.084642 0.515950 0.346064 
-0.084636 0.457175 0.157826 
-0.084596 0.456958 0.164566 
-0.084576 0.515552 0.438380 
-0.084554 0.456731 0.162207 
-0.084539 0.515325 0.295454 
-0.084487 0.483972 0.408601 
-0.084396 0.514455 0.348342 
-0.084382 0.455803 0.161878 
-0.084370 0.469127 0.195004 
-0.084337 0.455564 0.159528 
-0.084330 0.514048 0.297729 
-0.084323 0.514010 0.291706 
-0.084271 0.482736 0.260556 
-0.084266 0.513659 0.440656 
-0.084252 0.455104 0.163899 
-0.084239 0.482551 0.252288 
-0.084230 0.513438 0.312628 
-0.084228 0.482487 0.318069 
-0.084218 0.468285 0.197081 
-0.084217 0.513358 0.371068 
-0.084213 0.513339 0.367641 
-0.084177 0.482193 0.314846 
-0.084155 0.467936 0.187282 
-0.084122 0.481880 0.311633 
-0.084078 0.481629 0.271008 
-0.084075 0.481611 0.262692 
-0.084073 0.512484 0.340489 
-0.084041 0.512290 0.337131 
-0.084010 0.467128 0.189354 
-0.084008 0.512087 0.314895 
-0.083978 0.511907 0.299499 
-0.083969 0.466902 0.184480 
-0.083920 0.466627 0.179625 
-0.083892 0.466473 0.177204 
-0.083877 0.480477 0.264823 
-0.083874 0.480459 0.273139 
-0.083863 0.466310 0.191424 
-0.083857 0.480364 0.256553 
-0.083831 0.511007 0.442273 
-0.083785 0.510726 0.317156 
-0.083781 0.465852 0.181692 
-0.083766 0.510612 0.301760 
-0.083695 0.510180 0.329364 
-0.083678 0.479335 0.266948 
-0.083646 0.479156 0.300994 
-0.083558 0.526169 0.280299 
-0.083558 0.509341 0.368165 
-0.083552 0.509308 0.304015 
-0.083546 0.509269 0.381875 
-0.083487 0.478244 0.234166 
-0.083482 0.508878 0.395694 
-0.083420 0.477857 0.303113 
-0.083365 0.524957 0.282621 
-0.083352 0.477468 0.231184 
-0.083337 0.507994 0.306264 
-0.083311 0.477233 0.236282 
-0.083201 0.507170 0.397940 
-0.083191 0.476550 0.305227 
-0.083171 0.523734 0.284938 
-0.083132 0.476213 0.238393 
-0.083101 0.476034 0.202636 
-0.083079 0.475905 0.243503 
-0.083009 0.505999 0.317306 
-0.082984 0.522558 0.249542 
-0.082963 0.461305 0.168282 
-0.082953 0.475184 0.240500 
-0.082948 0.475159 0.204743 
-0.082945 0.475137 0.217270 
-0.082937 0.475095 0.219787 
-0.082919 0.505451 0.400179 
-0.082902 0.474893 0.227361 
-0.082895 0.474854 0.245608 
-0.082866 0.460765 0.172712 
-0.082832 0.460578 0.170326 
-0.082813 0.521478 0.251848 
-0.082808 0.504769 0.345021 
-0.082794 0.474274 0.206845 
-0.082772 0.474146 0.221889 
-0.082760 0.474080 0.224410 
-0.082694 0.504078 0.421083 
-0.082640 0.503747 0.367492 
-0.082617 0.473260 0.198995 
-0.082558 0.503247 0.321769 
-0.082480 0.472477 0.208545 
-0.082472 0.502722 0.387387 
-0.082447 0.472288 0.196139 
-0.082405 0.502317 0.412204 
-0.082396 0.502260 0.423308 
-0.082379 0.502160 0.369716 
-0.082364 0.502066 0.415687 
-0.082363 0.502058 0.302685 
-0.082344 0.501945 0.426810 
-0.082330 0.501857 0.323991 
-0.082323 0.471577 0.210636 
-0.082271 0.501502 0.422668 
-0.082255 0.501399 0.400553 
-0.082244 0.501337 0.375927 
-0.082218 0.517736 0.272893 
-0.082214 0.501151 0.386177 
-0.082176 0.470735 0.181042 
-0.082164 0.470667 0.212723 
-0.082150 0.470586 0.178605 
-0.082118 0.500563 0.371933 
-0.082108 0.500504 0.378739 
-0.082098 0.500441 0.403389 
-0.082070 0.500271 0.417902 
-0.082042 0.500102 0.429025 
-0.082040 0.469953 0.183126 
-0.081984 0.499750 0.374738 
-0.081972 0.499677 0.424882 
-0.081931 0.515928 0.263307 
-0.081867 0.515520 0.257412 
-0.081858 0.515467 0.221544 
-0.081852 0.498942 0.363987 
-0.081839 0.498869 0.380948 
-0.081812 0.498700 0.405598 
-0.081774 0.498467 0.420111 
-0.081760 0.498385 0.343873 
-0.081757 0.454601 0.163565 
-0.081750 0.514788 0.265584 
-0.081741 0.468243 0.184843 
-0.081724 0.498164 0.373548 
-0.081706 0.514508 0.223819 
-0.081698 0.498009 0.383756 
-0.081690 0.514406 0.259687 
-0.081683 0.514367 0.229162 
-0.081619 0.513962 0.253817 
-0.081602 0.467444 0.186915 
-0.081594 0.497370 0.366189 
-0.081589 0.497341 0.376345 
-0.081579 0.453608 0.154210 
-0.081575 0.513685 0.218105 
-0.081568 0.513639 0.267856 
-0.081552 0.513538 0.226090 
-0.081549 0.453441 0.160889 
-0.081541 0.467098 0.158652 
-0.081526 0.513375 0.231433 
-0.081461 0.466636 0.188984 
-0.081459 0.496551 0.375747 
-0.081459 0.452942 0.156219 
-0.081419 0.496308 0.323502 
-0.081409 0.496246 0.389369 
-0.081399 0.496182 0.407169 
-0.081389 0.496120 0.392791 
-0.081374 0.496031 0.320230 
-0.081337 0.452266 0.158226 
-0.081326 0.495736 0.316966 
-0.081322 0.495716 0.378541 
-0.081318 0.465819 0.191049 
-0.081298 0.495569 0.385345 
-0.081272 0.495410 0.278280 
-0.081193 0.494928 0.377939 
-0.081183 0.494867 0.381334 
-0.081177 0.494830 0.424503 
-0.081154 0.464880 0.174096 
-0.081153 0.494685 0.388145 
-0.081137 0.494586 0.313182 
-0.081113 0.510774 0.345564 
-0.081110 0.494424 0.394981 
-0.081096 0.464546 0.160076 
-0.081086 0.510603 0.249371 
-0.081081 0.510571 0.232877 
-0.081044 0.510339 0.238217 
-0.081024 0.493901 0.350455 
-0.080983 0.493646 0.343808 
-0.080969 0.493564 0.291685 
-0.080921 0.509563 0.235131 
-0.080902 0.493153 0.294372 
-0.080878 0.493009 0.390329 
-0.080862 0.492912 0.312122 
-0.080850 0.492833 0.343241 
-0.080800 0.492535 0.359313 
-0.080784 0.492438 0.382910 
-0.080776 0.492387 0.352635 
-0.080739 0.492161 0.345987 
-0.080738 0.508412 0.240047 
-0.080734 0.492131 0.407461 
-0.080696 0.491895 0.410906 
-0.080650 0.461991 0.161481 
-0.080606 0.491351 0.345417 
-0.080602 0.491324 0.392505 
-0.080553 0.491024 0.368194 
-0.080551 0.491014 0.364837 
-0.080546 0.490983 0.361487 
-0.080528 0.461292 0.163526 
-0.080513 0.490784 0.385084 
-0.080494 0.490667 0.348160 
-0.080450 0.490401 0.310532 
-0.080422 0.490228 0.338245 
-0.080422 0.490225 0.370961 
-0.080392 0.490047 0.402135 
-0.080292 0.489434 0.370362 
-0.080290 0.489422 0.363655 
-0.080284 0.489386 0.360312 
-0.080279 0.459869 0.167606 
-0.080256 0.489216 0.306782 
-0.080247 0.489163 0.350326 
-0.080242 0.459656 0.165234 
-0.080241 0.489121 0.387250 
-0.080238 0.505265 0.246765 
-0.080197 0.488857 0.394051 
-0.080191 0.488817 0.271758 
-0.080187 0.488795 0.327850 
-0.080179 0.504892 0.361292 
-0.080159 0.488623 0.373125 
-0.080153 0.459144 0.169642 
-0.080147 0.488551 0.324589 
-0.080053 0.487978 0.285500 
-0.080044 0.487925 0.396835 
-0.080012 0.487730 0.355807 
-0.079999 0.487650 0.352486 
-0.079968 0.487461 0.320792 
-0.079955 0.487381 0.268163 
-0.079955 0.487379 0.330008 
-0.079918 0.487156 0.396209 
-0.079894 0.487012 0.375281 
-0.079867 0.486847 0.351905 
-0.079840 0.502758 0.242808 
-0.079820 0.486556 0.311097 
-0.079805 0.502538 0.276274 
-0.079786 0.502422 0.248118 
-0.079721 0.485953 0.332160 
-0.079705 0.485860 0.304677 
-0.079637 0.485445 0.398359 
-0.079629 0.485391 0.377431 
-0.079627 0.485380 0.307353 
-0.079616 0.501348 0.250335 
-0.079588 0.485142 0.253204 
-0.079585 0.485125 0.387552 
-0.079514 0.484690 0.258416 
-0.079463 0.484380 0.312708 
-0.079438 0.500227 0.238878 
-0.079430 0.484182 0.303625 
-0.079411 0.484062 0.280362 
-0.079408 0.484047 0.255347 
-0.079355 0.483725 0.400502 
-0.079339 0.483626 0.268872 
-0.079330 0.483572 0.260556 
-0.079310 0.483451 0.389693 
-0.079302 0.483403 0.297257 
-0.079300 0.483387 0.252288 
-0.079288 0.483315 0.263165 
-0.079276 0.483243 0.418244 
-0.079270 0.483205 0.279866 
-0.079241 0.483029 0.314846 
-0.079230 0.482960 0.299914 
-0.079228 0.482950 0.288281 
-0.079227 0.482943 0.257484 
-0.079185 0.482688 0.276742 
-0.079175 0.482628 0.235903 
-0.079164 0.482559 0.296738 
-0.079163 0.482552 0.290925 
-0.079153 0.482495 0.238474 
-0.079151 0.482482 0.285136 
-0.079148 0.482464 0.271008 
-0.079121 0.482296 0.254423 
-0.079097 0.482153 0.273628 
-0.079092 0.482119 0.299391 
-0.079055 0.497816 0.318034 
-0.079044 0.481830 0.259617 
-0.079037 0.497700 0.285113 
-0.079003 0.481577 0.262219 
-0.078984 0.481463 0.240605 
-0.078980 0.481437 0.420376 
-0.078957 0.481295 0.293056 
-0.078940 0.481196 0.256553 
-0.078930 0.481135 0.245753 
-0.078928 0.497013 0.276087 
-0.078913 0.481030 0.267429 
-0.078903 0.480970 0.275757 
-0.078875 0.496683 0.278765 
-0.078837 0.496441 0.320230 
-0.078810 0.480399 0.286759 
-0.078802 0.480351 0.196668 
-0.078788 0.480268 0.226946 
-0.078773 0.480179 0.229493 
-0.078758 0.480087 0.258678 
-0.078756 0.480073 0.247878 
-0.078749 0.480029 0.295181 
-0.078724 0.479878 0.250457 
-0.078724 0.479874 0.269554 
-0.078718 0.479838 0.261272 
-0.078694 0.479693 0.239720 
-0.078684 0.495477 0.280957 
-0.078681 0.495458 0.207797 
-0.078674 0.479576 0.263868 
-0.078669 0.479540 0.242285 
-0.078625 0.479272 0.191313 
-0.078611 0.479186 0.231615 
-0.078601 0.494955 0.277795 
-0.078571 0.478947 0.236720 
-0.078567 0.478922 0.277385 
-0.078540 0.478758 0.291511 
-0.078532 0.478709 0.271673 
-0.078532 0.478708 0.263391 
-0.078524 0.478656 0.241839 
-0.078512 0.478586 0.198411 
-0.078511 0.478577 0.280000 
-0.078497 0.478492 0.244403 
-0.078491 0.494261 0.283143 
-0.078489 0.478443 0.193431 
-0.078481 0.478394 0.274280 
-0.078468 0.478314 0.246970 
-0.078467 0.478312 0.288369 
-0.078446 0.478184 0.233731 
-0.078410 0.493753 0.279980 
-0.078371 0.477727 0.200526 
-0.078351 0.477606 0.195544 
-0.078345 0.477570 0.265505 
-0.078334 0.477501 0.228214 
-0.078323 0.477435 0.246516 
-0.078312 0.477367 0.282113 
-0.078287 0.492980 0.308887 
-0.078286 0.477208 0.276392 
-0.078280 0.477173 0.235843 
-0.078242 0.492693 0.204091 
-0.078208 0.492481 0.311592 
-0.078208 0.476729 0.243503 
-0.078203 0.476705 0.265024 
-0.078172 0.476514 0.230323 
-0.078160 0.492179 0.284828 
-0.078157 0.476422 0.267614 
-0.078090 0.476014 0.278500 
-0.078089 0.476007 0.212247 
-0.078081 0.475960 0.217270 
-0.078075 0.475918 0.219787 
-0.078065 0.475863 0.222308 
-0.078041 0.475716 0.227361 
-0.078040 0.491426 0.248086 
-0.078009 0.475517 0.232428 
-0.077972 0.475294 0.250729 
-0.077967 0.475265 0.269719 
-0.077964 0.490947 0.287000 
-0.077948 0.490846 0.328954 
-0.077941 0.475106 0.209343 
-0.077940 0.475096 0.206845 
-0.077938 0.475088 0.214350 
-0.077938 0.475083 0.253294 
-0.077927 0.475020 0.219372 
-0.077923 0.474992 0.199378 
-0.077919 0.474967 0.221889 
-0.077917 0.474958 0.272310 
-0.077908 0.474902 0.224410 
-0.077893 0.474810 0.280602 
-0.077870 0.490352 0.250254 
-0.077844 0.474512 0.234528 
-0.077794 0.474210 0.252828 
-0.077793 0.474201 0.208944 
-0.077793 0.474200 0.211442 
-0.077790 0.474187 0.213943 
-0.077781 0.474129 0.201476 
-0.077771 0.474071 0.221471 
-0.077767 0.489706 0.289166 
-0.077758 0.473988 0.255392 
-0.077753 0.489615 0.231172 
-0.077737 0.473861 0.191578 
-0.077703 0.473653 0.186655 
-0.077698 0.489269 0.252418 
-0.077677 0.473498 0.236624 
-0.077643 0.473285 0.213536 
-0.077639 0.473261 0.216038 
-0.077638 0.473257 0.203570 
-0.077637 0.473250 0.179306 
-0.077633 0.473224 0.218543 
-0.077624 0.473175 0.221052 
-0.077623 0.473169 0.198612 
-0.077614 0.473113 0.223565 
-0.077611 0.473092 0.176865 
-0.077601 0.473031 0.193671 
-0.077577 0.472884 0.257485 
-0.077570 0.472845 0.188748 
-0.077568 0.488455 0.291326 
-0.077562 0.488411 0.318092 
-0.077541 0.472668 0.249344 
-0.077536 0.472638 0.260051 
-0.077532 0.472613 0.236182 
-0.077532 0.472610 0.183842 
-0.077524 0.488177 0.254578 
-0.077510 0.472475 0.238715 
-0.077509 0.472474 0.181396 
-0.077494 0.472376 0.205661 
-0.077491 0.472361 0.215627 
-0.077485 0.472326 0.178955 
-0.077482 0.472309 0.200703 
-0.077479 0.487892 0.282347 
-0.077451 0.472116 0.193297 
-0.077442 0.472060 0.228171 
-0.077430 0.487580 0.317551 
-0.077424 0.487543 0.339277 
-0.077420 0.471927 0.188381 
-0.077401 0.471814 0.185930 
-0.077368 0.487195 0.293482 
-0.077358 0.471551 0.181042 
-0.077348 0.471486 0.207748 
-0.077345 0.471469 0.205266 
-0.077343 0.487036 0.320247 
-0.077340 0.471440 0.202789 
-0.077338 0.471428 0.217714 
-0.077333 0.471399 0.200316 
-0.077330 0.471382 0.220215 
-0.077324 0.471345 0.197847 
-0.077321 0.471324 0.222719 
-0.077314 0.471280 0.195382 
-0.077307 0.471241 0.176173 
-0.077298 0.486753 0.290311 
-0.077285 0.471105 0.245878 
-0.077280 0.471073 0.230256 
-0.077254 0.486477 0.322944 
-0.077221 0.470715 0.159604 
-0.077220 0.470708 0.237823 
-0.077199 0.470581 0.207349 
-0.077184 0.470489 0.199929 
-0.077182 0.470477 0.178255 
-0.077169 0.470401 0.242885 
-0.077167 0.485925 0.295631 
-0.077164 0.470366 0.195004 
-0.077163 0.470361 0.224801 
-0.077141 0.470228 0.245420 
-0.077135 0.470194 0.190096 
-0.077116 0.470078 0.232336 
-0.077099 0.485497 0.292459 
-0.077090 0.485440 0.286647 
-0.077071 0.485323 0.255808 
-0.077055 0.469706 0.180334 
-0.077052 0.469684 0.209428 
-0.077051 0.469680 0.239902 
-0.077050 0.469676 0.206950 
-0.077047 0.469656 0.204477 
-0.077042 0.469624 0.202008 
-0.077025 0.469522 0.242430 
-0.077014 0.469453 0.194625 
-0.077001 0.469372 0.192173 
-0.076968 0.469172 0.187282 
-0.076964 0.484647 0.297775 
-0.076956 0.484600 0.343572 
-0.076954 0.469089 0.161362 
-0.076952 0.469073 0.234413 
