# .PCD v.7 - Point Cloud Data file format
VERSION .7
FIELDS x y z
SIZE 4 4 4
TYPE F F F
COUNT 1 1 1
WIDTH 1594
HEIGHT 1
POINTS 1594
DATA ascii
0.016249 -0.836165 0.204659 
0.016252 -0.836331 0.224149 
0.016252 -0.836334 0.220243 
0.016263 -0.836888 0.247957 
0.016266 -0.837050 0.201008 
0.016271 -0.837287 0.216591 
0.016271 -0.837297 0.224408 
0.016276 -0.837561 0.256129 
0.016283 -0.837919 0.197354 
0.016284 -0.837962 0.244303 
0.016286 -0.838059 0.240368 
0.016289 -0.838224 0.212935 
0.016298 -0.838671 0.252472 
0.016305 -0.839020 0.240643 
0.016306 -0.839099 0.236708 
0.016307 -0.839144 0.209274 
0.016307 -0.839160 0.232777 
0.016308 -0.839203 0.228849 
0.016319 -0.839764 0.248809 
0.016323 -0.839981 0.240919 
0.016325 -0.840062 0.264933 
0.016326 -0.840124 0.233044 
0.016329 -0.840255 0.260968 
0.016340 -0.840842 0.245142 
0.016344 -0.841024 0.237251 
0.016359 -0.841801 0.245422 
0.016375 -0.842640 0.249661 
0.016376 -0.842708 0.269817 
0.016393 -0.843552 0.286414 
0.016398 -0.843845 0.282413 
0.016399 -0.843877 0.266136 
0.016403 -0.844071 0.303123 
0.016404 -0.844119 0.278414 
0.016405 -0.844185 0.290744 
0.016406 -0.844254 0.258176 
0.016409 -0.844415 0.254201 
0.016410 -0.844443 0.299102 
0.016421 -0.845029 0.262451 
0.016422 -0.845069 0.278728 
0.016423 -0.845130 0.291070 
0.016427 -0.845326 0.274728 
0.016428 -0.845386 0.299436 
0.016429 -0.845445 0.287057 
0.016432 -0.845560 0.307830 
0.016435 -0.845740 0.295415 
0.016435 -0.845741 0.283047 
0.016439 -0.845953 0.303799 
0.016450 -0.846516 0.271036 
0.016453 -0.846684 0.295744 
0.016459 -0.846939 0.263044 
0.016472 -0.847637 0.283682 
0.016473 -0.847691 0.267339 
0.016486 -0.848378 0.308856 
0.016497 -0.848894 0.330193 
0.016497 -0.848899 0.313248 
0.016506 -0.849397 0.317650 
0.016524 -0.850327 0.326485 
0.016527 -0.850460 0.297063 
0.016552 -0.851743 0.322771 
0.016569 -0.852651 0.314632 
0.016570 -0.852693 0.293674 
0.016577 -0.853019 0.289629 
0.016579 -0.853143 0.319051 
0.016593 -0.853868 0.302441 
0.016606 -0.854527 0.315324 
0.016606 -0.854548 0.323834 
0.016616 -0.855033 0.349883 
0.016620 -0.855268 0.341295 
0.016625 -0.855483 0.324188 
0.016631 -0.855818 0.337193 
0.016633 -0.855894 0.311592 
0.016634 -0.855959 0.350262 
0.016641 -0.856349 0.333092 
0.016645 -0.856552 0.346148 
0.016645 -0.856558 0.359266 
0.016650 -0.856823 0.363782 
0.016652 -0.856889 0.320452 
0.016658 -0.857194 0.355142 
0.016659 -0.857245 0.307854 
0.016669 -0.857794 0.329352 
0.016674 -0.858053 0.342407 
0.016681 -0.858402 0.360039 
0.016681 -0.858406 0.346897 
0.016685 -0.858609 0.338292 
0.016694 -0.859041 0.355907 
0.016703 -0.859539 0.338659 
0.016709 -0.859821 0.369492 
0.016711 -0.859911 0.343148 
0.016714 -0.860076 0.334542 
0.016717 -0.860259 0.347647 
0.016740 -0.861425 0.365736 
0.016742 -0.861511 0.352534 
0.016749 -0.861869 0.374836 
0.016752 -0.862056 0.379399 
0.016753 -0.862090 0.361586 
0.016758 -0.862345 0.366127 
0.016760 -0.862461 0.331144 
0.016765 -0.862736 0.357438 
0.016766 -0.862786 0.375234 
0.016770 -0.862971 0.379802 
0.016780 -0.863496 0.371071 
0.016782 -0.863606 0.412011 
0.016809 -0.864959 0.385191 
0.016817 -0.865395 0.408238 
0.016833 -0.866200 0.399413 
0.016834 -0.866252 0.372255 
0.016834 -0.866261 0.404034 
0.016835 -0.866299 0.408664 
0.016847 -0.866917 0.390605 
0.016850 -0.867108 0.399832 
0.016852 -0.867167 0.404457 
0.016852 -0.867203 0.418382 
0.016852 -0.867203 0.409091 
0.016855 -0.867370 0.377228 
0.016866 -0.867934 0.395629 
0.016869 -0.868074 0.404880 
0.016870 -0.868118 0.414163 
0.016877 -0.868462 0.382218 
0.016880 -0.868613 0.386818 
0.016882 -0.868740 0.391427 
0.016883 -0.868812 0.433269 
0.016884 -0.868844 0.396043 
0.016886 -0.868924 0.400669 
0.016905 -0.869905 0.419685 
0.016920 -0.870663 0.396873 
0.016920 -0.870693 0.429474 
0.016923 -0.870825 0.415455 
0.016933 -0.871377 0.439307 
0.016939 -0.871660 0.425231 
0.016953 -0.872391 0.435054 
0.016956 -0.872559 0.425670 
0.016970 -0.873285 0.435500 
0.016972 -0.873383 0.430801 
0.016985 -0.874056 0.440658 
0.016990 -0.874280 0.431243 
0.016995 -0.874553 0.470018 
0.016996 -0.874622 0.450559 
0.017006 -0.875131 0.475261 
0.017017 -0.875688 0.446284 
0.017018 -0.875713 0.465727 
0.017026 -0.876153 0.427423 
0.017031 -0.876400 0.451475 
0.017034 -0.876579 0.446738 
0.017038 -0.876734 0.442008 
0.017040 -0.876851 0.461435 
0.017044 -0.877072 0.486275 
0.017048 -0.877288 0.451933 
0.017052 -0.877470 0.447192 
0.017052 -0.877478 0.466666 
0.017057 -0.877736 0.461901 
0.017062 -0.877969 0.457143 
0.017068 -0.878308 0.481962 
0.017078 -0.878821 0.487245 
0.017079 -0.878856 0.457604 
0.017085 -0.879185 0.482443 
0.017092 -0.879524 0.477647 
0.017098 -0.879838 0.472858 
0.017108 -0.880390 0.463298 
0.017109 -0.880402 0.478124 
0.017112 -0.880570 0.488215 
0.017115 -0.880718 0.473331 
0.017138 -0.881917 0.504167 
0.017148 -0.882403 0.459451 
0.017155 -0.882775 0.469483 
0.017172 -0.883653 0.505160 
0.017172 -0.883665 0.494985 
0.017181 -0.884108 0.500314 
0.017196 -0.884904 0.511011 
0.017198 -0.884978 0.500806 
0.017204 -0.885280 0.532045 
0.017206 -0.885410 0.495962 
0.017220 -0.886121 0.516883 
0.017226 -0.886442 0.522268 
0.017230 -0.886636 0.512011 
0.017232 -0.886733 0.527666 
0.017240 -0.887155 0.496939 
0.017258 -0.888079 0.539017 
0.017270 -0.888708 0.534106 
0.017270 -0.888712 0.518395 
0.017276 -0.889027 0.523791 
0.017293 -0.889888 0.524298 
0.017312 -0.890834 0.546022 
0.017315 -0.891030 0.530222 
0.017321 -0.891303 0.519906 
0.017324 -0.891498 0.541092 
0.017328 -0.891686 0.546545 
0.024180 -0.815073 0.154827 
0.024199 -0.815740 0.151267 
0.024219 -0.816392 0.147705 
0.024305 -0.819296 0.159337 
0.024313 -0.819573 0.163107 
0.024321 -0.819834 0.166883 
0.024325 -0.819983 0.155760 
0.024328 -0.820077 0.170664 
0.024334 -0.820277 0.159528 
0.024345 -0.820655 0.152179 
0.024350 -0.820813 0.167082 
0.024370 -0.821487 0.178453 
0.024371 -0.821534 0.163498 
0.024386 -0.822034 0.171071 
0.024393 -0.822258 0.174866 
0.024394 -0.822294 0.148773 
0.024505 -0.826033 0.194603 
0.024515 -0.826371 0.179514 
0.024530 -0.826874 0.190995 
0.024538 -0.827146 0.175905 
0.024549 -0.827532 0.183553 
0.024583 -0.828674 0.187605 
0.024595 -0.829064 0.199141 
0.024600 -0.829235 0.206855 
0.024607 -0.829484 0.183986 
0.024612 -0.829649 0.187826 
0.024626 -0.830129 0.203233 
0.024632 -0.830302 0.214838 
0.024645 -0.830769 0.191895 
0.024659 -0.831231 0.211211 
0.024678 -0.831870 0.195978 
0.024686 -0.832145 0.207581 
0.024713 -0.833042 0.203946 
0.024718 -0.833224 0.219479 
0.024739 -0.833924 0.200308 
0.024745 -0.834134 0.231440 
0.024745 -0.834138 0.211950 
0.024756 -0.834483 0.255252 
0.024775 -0.835135 0.227797 
0.024788 -0.835589 0.251607 
0.024798 -0.835927 0.239816 
0.024801 -0.836002 0.235894 
0.024804 -0.836109 0.216340 
0.024804 -0.836121 0.224149 
0.024821 -0.836678 0.247957 
0.024830 -0.836992 0.264031 
0.024833 -0.837090 0.220497 
0.024853 -0.837751 0.244303 
0.024858 -0.837927 0.236436 
0.024859 -0.837987 0.232509 
0.024864 -0.838135 0.260375 
0.024878 -0.838607 0.284807 
0.024897 -0.839263 0.256714 
0.024914 -0.839841 0.281143 
0.024930 -0.840374 0.253048 
0.024951 -0.841060 0.277475 
0.024958 -0.841311 0.273492 
0.024971 -0.841758 0.265535 
0.024991 -0.842428 0.249661 
0.024993 -0.842496 0.269817 
0.025014 -0.843212 0.274110 
0.025018 -0.843340 0.286414 
0.025023 -0.843509 0.245981 
0.025027 -0.843633 0.282413 
0.025037 -0.843973 0.290744 
0.025055 -0.844574 0.242297 
0.025063 -0.844857 0.278728 
0.025065 -0.844918 0.291070 
0.025073 -0.845174 0.299436 
0.025083 -0.845528 0.295415 
0.025090 -0.845741 0.303799 
0.025134 -0.847226 0.308514 
0.025206 -0.849660 0.322062 
0.025219 -0.850120 0.318000 
0.025223 -0.850246 0.297063 
0.025229 -0.850445 0.305488 
0.025240 -0.850827 0.301439 
0.025245 -0.850983 0.309882 
0.025260 -0.851499 0.314286 
0.025274 -0.851980 0.327201 
0.025275 -0.851993 0.318700 
0.025276 -0.852043 0.348747 
0.025294 -0.852629 0.344650 
0.025311 -0.853196 0.340554 
0.025316 -0.853374 0.314978 
0.025317 -0.853399 0.323479 
0.025338 -0.854124 0.340924 
0.025343 -0.854271 0.332367 
0.025354 -0.854673 0.336826 
0.025368 -0.855132 0.354376 
0.025376 -0.855410 0.345773 
0.025398 -0.856134 0.333092 
0.025426 -0.857069 0.372842 
0.025441 -0.857579 0.329352 
0.025441 -0.857594 0.351019 
0.025474 -0.858687 0.369097 
0.025494 -0.859368 0.364954 
0.025505 -0.859753 0.405678 
0.025513 -0.860009 0.378593 
0.025513 -0.860030 0.360813 
0.025518 -0.860176 0.383157 
0.025521 -0.860289 0.365345 
0.025532 -0.860672 0.356673 
0.025541 -0.860952 0.361200 
0.025552 -0.861349 0.392726 
0.025557 -0.861514 0.401921 
0.025559 -0.861584 0.411149 
0.025603 -0.863054 0.388962 
0.025609 -0.863259 0.398157 
0.025611 -0.863326 0.402767 
0.025612 -0.863370 0.407384 
0.025613 -0.863389 0.412011 
0.025626 -0.863829 0.384784 
0.025630 -0.863965 0.389373 
0.025640 -0.864285 0.417079 
0.025643 -0.864402 0.376032 
0.025649 -0.864584 0.380607 
0.025660 -0.864987 0.394385 
0.025663 -0.865075 0.398994 
0.025664 -0.865116 0.371860 
0.025693 -0.866085 0.417948 
0.025764 -0.868481 0.437957 
0.025821 -0.870383 0.434162 
0.025825 -0.870543 0.424793 
0.025847 -0.871277 0.434608 
0.025848 -0.871324 0.458641 
0.025867 -0.871963 0.463849 
0.025876 -0.872268 0.430358 
0.025905 -0.873238 0.426108 
0.025908 -0.873316 0.454834 
0.025913 -0.873514 0.450101 
0.025938 -0.874334 0.470018 
0.025945 -0.874578 0.445830 
0.025953 -0.874862 0.460504 
0.025972 -0.875493 0.465727 
0.025981 -0.875789 0.475739 
0.025990 -0.876095 0.470964 
0.026007 -0.876668 0.476216 
0.026013 -0.876862 0.456681 
0.026019 -0.877068 0.451933 
0.026024 -0.877250 0.447192 
0.026027 -0.877339 0.491564 
0.026029 -0.877406 0.442458 
0.026049 -0.878088 0.481962 
0.026090 -0.879474 0.487730 
0.026105 -0.879960 0.503175 
0.026116 -0.880348 0.488215 
0.026127 -0.880717 0.483405 
0.026130 -0.880828 0.503671 
0.026144 -0.881276 0.498836 
0.026153 -0.881582 0.514364 
0.026168 -0.882085 0.509511 
0.026182 -0.882571 0.494496 
0.026224 -0.883971 0.547274 
0.026269 -0.885497 0.542887 
0.026296 -0.886414 0.512011 
0.026314 -0.887002 0.538498 
0.026341 -0.887942 0.523283 
0.026357 -0.888485 0.534106 
0.026358 -0.888489 0.518395 
0.026364 -0.888711 0.539535 
0.026375 -0.889070 0.550431 
0.026383 -0.889342 0.534621 
0.026395 -0.889758 0.545500 
0.026401 -0.889947 0.529711 
0.026452 -0.891665 0.530733 
0.027517 -0.791076 0.171875 
0.027543 -0.791818 0.168420 
0.027568 -0.792545 0.164961 
0.027618 -0.793988 0.147258 
0.027635 -0.794464 0.133040 
0.027743 -0.797573 0.144324 
0.027763 -0.798154 0.162496 
0.027765 -0.798194 0.140840 
0.027786 -0.798801 0.137354 
0.027822 -0.799835 0.159205 
0.027835 -0.800211 0.152029 
0.027845 -0.800521 0.155712 
0.027891 -0.801819 0.174209 
0.027892 -0.801849 0.148716 
0.027917 -0.802571 0.170707 
0.027942 -0.803308 0.167202 
0.027966 -0.803979 0.178358 
0.027968 -0.804029 0.163693 
0.027971 -0.804138 0.152775 
0.027982 -0.804446 0.156475 
0.027992 -0.804736 0.160181 
0.028040 -0.806118 0.182528 
0.028068 -0.806906 0.179007 
0.028129 -0.808656 0.175695 
0.028142 -0.809048 0.153708 
0.028155 -0.809414 0.172163 
0.028165 -0.809710 0.150174 
0.028181 -0.810157 0.168627 
0.028188 -0.810357 0.146637 
0.028307 -0.813778 0.132625 
0.028339 -0.814712 0.180739 
0.028376 -0.815782 0.166085 
0.028401 -0.816498 0.162522 
0.028426 -0.817199 0.158956 
0.028462 -0.818238 0.196573 
0.028481 -0.818790 0.185398 
0.028487 -0.818947 0.189196 
0.028491 -0.819087 0.192998 
0.028639 -0.823345 0.209242 
0.028668 -0.824168 0.201807 
0.028671 -0.824250 0.205645 
0.028724 -0.825764 0.190770 
0.028728 -0.825897 0.194603 
0.028776 -0.827263 0.214087 
0.028786 -0.827562 0.187384 
0.028791 -0.827711 0.191220 
0.028805 -0.828103 0.237611 
0.028807 -0.828170 0.233722 
0.028835 -0.828978 0.241784 
0.028841 -0.829132 0.233993 
0.028843 -0.829198 0.214587 
0.028844 -0.829221 0.218460 
0.028872 -0.830025 0.238162 
0.028874 -0.830094 0.234265 
0.028875 -0.830126 0.210965 
0.028876 -0.830144 0.230371 
0.028905 -0.830985 0.238438 
0.028907 -0.831038 0.207339 
0.028909 -0.831107 0.230638 
0.028911 -0.831141 0.226745 
0.028932 -0.831749 0.246537 
0.028938 -0.831920 0.139312 
0.028938 -0.831934 0.203709 
0.028943 -0.832070 0.230906 
0.028945 -0.832122 0.223114 
0.028961 -0.832580 0.250742 
0.028969 -0.832814 0.200075 
0.028977 -0.833041 0.262829 
0.028978 -0.833069 0.227271 
0.028983 -0.833225 0.258892 
0.028989 -0.833390 0.254960 
0.028999 -0.833679 0.196437 
0.029012 -0.834052 0.223632 
0.029012 -0.834053 0.219733 
0.029036 -0.834743 0.267378 
0.029045 -0.835020 0.219988 
0.029065 -0.835582 0.247673 
0.029076 -0.835886 0.208549 
0.029077 -0.835938 0.212442 
0.029079 -0.835971 0.216340 
0.029083 -0.836088 0.259782 
0.029094 -0.836420 0.271947 
0.029102 -0.836654 0.244023 
0.029107 -0.836788 0.204897 
0.029109 -0.836854 0.264031 
0.029116 -0.837043 0.260079 
0.029127 -0.837365 0.252184 
0.029132 -0.837498 0.248241 
0.029139 -0.837695 0.305093 
0.029155 -0.838169 0.256422 
0.029185 -0.839017 0.301433 
0.029188 -0.839109 0.289116 
0.029188 -0.839125 0.256714 
0.029208 -0.839703 0.281143 
0.029218 -0.839972 0.277162 
0.029227 -0.840236 0.253048 
0.029230 -0.840324 0.297767 
0.029231 -0.840362 0.285450 
0.029235 -0.840453 0.269207 
0.029275 -0.841614 0.294096 
0.029283 -0.841839 0.302447 
0.029317 -0.842819 0.278101 
0.029326 -0.843073 0.274110 
0.029334 -0.843309 0.270122 
0.029363 -0.844147 0.286736 
0.029373 -0.844442 0.282730 
0.029373 -0.844445 0.295085 
0.029375 -0.844479 0.266437 
0.029381 -0.844661 0.303461 
0.029385 -0.844779 0.291070 
0.029386 -0.844795 0.311863 
0.029396 -0.845094 0.287057 
0.029418 -0.845724 0.291395 
0.029427 -0.845976 0.299770 
0.029433 -0.846147 0.308172 
0.029439 -0.846337 0.283365 
0.029449 -0.846616 0.279354 
0.029483 -0.847604 0.351315 
0.029492 -0.847860 0.300438 
0.029505 -0.848219 0.296404 
0.029533 -0.849044 0.317650 
0.029536 -0.849128 0.347611 
0.029549 -0.849483 0.313594 
0.029556 -0.849709 0.343526 
0.029562 -0.849883 0.334994 
0.029566 -0.849973 0.326485 
0.029576 -0.850271 0.339442 
0.029581 -0.850404 0.330917 
0.029581 -0.850421 0.313940 
0.029599 -0.850916 0.318350 
0.029608 -0.851199 0.339813 
0.029615 -0.851389 0.322771 
0.029631 -0.851852 0.318700 
0.029660 -0.852673 0.336093 
0.029678 -0.853199 0.332005 
0.029686 -0.853437 0.358106 
0.029692 -0.853603 0.336460 
0.029693 -0.853644 0.380310 
0.029697 -0.853753 0.349504 
0.029699 -0.853800 0.384855 
0.029718 -0.854342 0.345399 
0.029728 -0.854638 0.328277 
0.029735 -0.854841 0.389823 
0.029745 -0.855127 0.324188 
0.029750 -0.855269 0.345773 
0.029750 -0.855280 0.358879 
0.029760 -0.855547 0.363391 
0.029762 -0.855603 0.350262 
0.029762 -0.855622 0.385676 
0.029770 -0.855840 0.341666 
0.029783 -0.856209 0.376982 
0.029804 -0.856837 0.355142 
0.029808 -0.856928 0.372842 
0.029814 -0.857124 0.377385 
0.029820 -0.857296 0.381937 
0.029824 -0.857387 0.364173 
0.029840 -0.857844 0.373241 
0.029864 -0.858545 0.369097 
0.029865 -0.858579 0.396063 
0.029869 -0.858684 0.355907 
0.029897 -0.859487 0.396482 
0.029920 -0.860147 0.365345 
0.029928 -0.860394 0.396901 
0.029956 -0.861207 0.392726 
0.029962 -0.861372 0.401921 
0.029965 -0.861443 0.411149 
0.029993 -0.862264 0.425493 
0.029994 -0.862278 0.402344 
0.029996 -0.862344 0.411580 
0.030016 -0.862912 0.388962 
0.030027 -0.863227 0.407384 
0.030053 -0.863978 0.431038 
0.030058 -0.864112 0.421724 
0.030080 -0.864768 0.436157 
0.030088 -0.864995 0.403612 
0.030115 -0.865767 0.431931 
0.030121 -0.865942 0.417948 
0.030149 -0.866746 0.427704 
0.030151 -0.866807 0.423040 
0.030179 -0.867603 0.486189 
0.030184 -0.867757 0.414163 
0.030194 -0.868039 0.447354 
0.030200 -0.868201 0.442652 
0.030203 -0.868289 0.461971 
0.030204 -0.868338 0.437957 
0.030208 -0.868450 0.433269 
0.030214 -0.868603 0.423916 
0.030215 -0.868643 0.419251 
0.030215 -0.868651 0.409944 
0.030218 -0.868739 0.452525 
0.030231 -0.869091 0.443106 
0.030234 -0.869181 0.477152 
0.030242 -0.869411 0.457710 
0.030245 -0.869497 0.472398 
0.030249 -0.869626 0.452987 
0.030252 -0.869714 0.482397 
0.030256 -0.869816 0.448270 
0.030267 -0.870122 0.438857 
0.030276 -0.758702 0.164873 
0.030293 -0.870872 0.444014 
0.030316 -0.871549 0.468598 
0.030334 -0.872064 0.459107 
0.030365 -0.872949 0.459573 
0.030373 -0.873172 0.454834 
0.030377 -0.873309 0.469544 
0.030387 -0.873584 0.464788 
0.030447 -0.875315 0.480519 
0.030459 -0.875645 0.475739 
0.030469 -0.875950 0.470964 
0.030489 -0.876523 0.476216 
0.030508 -0.877067 0.481481 
0.030510 -0.877113 0.466666 
0.030526 -0.877581 0.486760 
0.030551 -0.878312 0.533310 
0.030559 -0.878522 0.497359 
0.030559 -0.878534 0.538707 
0.030570 -0.878846 0.512853 
0.030582 -0.879185 0.518208 
0.030602 -0.879772 0.528955 
0.030604 -0.879815 0.503175 
0.030617 -0.880209 0.508511 
0.030619 -0.880261 0.498344 
0.030630 -0.880573 0.513861 
0.030634 -0.880682 0.493519 
0.030648 -0.881074 0.509011 
0.030652 -0.881211 0.524598 
0.030660 -0.881436 0.514364 
0.030672 -0.881768 0.519730 
0.030682 -0.882070 0.525109 
0.030702 -0.882629 0.520238 
0.030708 -0.882826 0.489669 
0.030712 -0.882929 0.525620 
0.030714 -0.882975 0.546747 
0.030721 -0.883199 0.531015 
0.030737 -0.883647 0.541842 
0.030738 -0.883671 0.510511 
0.030755 -0.884170 0.495473 
0.030770 -0.884610 0.500806 
0.030781 -0.884912 0.532045 
0.030815 -0.885889 0.506648 
0.030819 -0.886001 0.537979 
0.031004 -0.891316 0.546545 
0.031027 -0.891982 0.541610 
0.031043 -0.892448 0.558016 
0.031090 -0.779099 0.144524 
0.031115 -0.779722 0.141121 
0.031240 -0.782871 0.166549 
0.031269 -0.783590 0.163128 
0.031297 -0.784293 0.159705 
0.031328 -0.785067 0.170602 
0.031520 -0.789882 0.157254 
0.031547 -0.790560 0.153804 
0.031573 -0.791223 0.150350 
0.031921 -0.799924 0.177492 
0.032076 -0.803826 0.178358 
0.032162 -0.805964 0.182528 
0.032433 -0.812773 0.125210 
0.032557 -0.815870 0.188521 
0.032590 -0.816684 0.184956 
0.032810 -0.822220 0.208996 
0.032846 -0.823123 0.205403 
0.032873 -0.823794 0.194145 
0.032882 -0.824011 0.201807 
0.032907 -0.824632 0.190545 
0.032917 -0.824883 0.198207 
0.032951 -0.825739 0.194603 
0.032968 -0.826164 0.217696 
0.032968 -0.826172 0.221561 
0.033001 -0.827001 0.206371 
0.033005 -0.827097 0.229569 
0.033005 -0.827105 0.214087 
0.033007 -0.827146 0.123729 
0.033015 -0.827340 0.257113 
0.033028 -0.827678 0.120116 
0.033037 -0.827893 0.202758 
0.033042 -0.828012 0.233722 
0.033042 -0.828031 0.210473 
0.033043 -0.828060 0.229837 
0.033045 -0.828090 0.225956 
0.033049 -0.828194 0.116500 
0.033059 -0.828453 0.253498 
0.033070 -0.828716 0.245685 
0.033072 -0.828769 0.199141 
0.033077 -0.828906 0.237887 
0.033083 -0.829054 0.226219 
0.033084 -0.829063 0.218460 
0.033084 -0.829067 0.222337 
0.033112 -0.829779 0.242064 
0.033122 -0.830023 0.261926 
0.033141 -0.830507 0.250166 
0.033146 -0.830632 0.246253 
0.033189 -0.831698 0.242623 
0.033231 -0.832748 0.238989 
0.033256 -0.833378 0.251031 
0.033272 -0.833782 0.235351 
0.033281 -0.834020 0.259189 
0.033304 -0.834583 0.267378 
0.033317 -0.834918 0.132356 
0.033323 -0.835067 0.275596 
0.033326 -0.835142 0.255545 
0.033342 -0.835535 0.267682 
0.033371 -0.836260 0.271947 
0.033388 -0.836694 0.264031 
0.033399 -0.836965 0.276222 
0.033490 -0.839255 0.285128 
0.033502 -0.839543 0.281143 
0.033553 -0.840838 0.289767 
0.033558 -0.840948 0.318873 
0.033577 -0.841438 0.281778 
0.033578 -0.841454 0.294096 
0.033613 -0.842330 0.315198 
0.033624 -0.842619 0.302785 
0.033639 -0.842989 0.298769 
0.033646 -0.843169 0.307146 
0.033667 -0.843696 0.311517 
0.033759 -0.846002 0.333528 
0.033763 -0.846080 0.325051 
0.033774 -0.846381 0.304137 
0.033790 -0.846768 0.342402 
0.033817 -0.847448 0.329830 
0.033827 -0.847699 0.300438 
0.033830 -0.847771 0.288021 
0.033849 -0.848252 0.338701 
0.033871 -0.848791 0.334627 
0.033874 -0.848878 0.326126 
0.033879 -0.849000 0.296733 
0.033892 -0.849321 0.313594 
0.033912 -0.849818 0.318000 
0.033929 -0.850242 0.330917 
0.033930 -0.850286 0.293023 
0.033931 -0.850292 0.322416 
0.033946 -0.850680 0.309882 
0.033964 -0.851135 0.352846 
0.034013 -0.852353 0.357719 
0.034025 -0.852665 0.349125 
0.034034 -0.852873 0.366728 
0.034041 -0.853058 0.398118 
0.034058 -0.853481 0.380310 
0.034060 -0.853544 0.362610 
0.034075 -0.853904 0.353994 
0.034097 -0.854464 0.363001 
0.034100 -0.854548 0.385266 
0.034110 -0.854785 0.394389 
0.034116 -0.854929 0.403545 
0.034116 -0.854932 0.372044 
0.034123 -0.855117 0.358879 
0.034124 -0.855131 0.376580 
0.034178 -0.856497 0.390652 
0.034180 -0.856546 0.368307 
0.034189 -0.856764 0.372842 
0.034197 -0.856960 0.377385 
0.034349 -0.860767 0.443691 
0.034355 -0.860925 0.388141 
0.034366 -0.861204 0.425051 
0.034368 -0.861253 0.420409 
0.034386 -0.861696 0.383971 
0.034396 -0.861952 0.393141 
0.034402 -0.862114 0.402344 
0.034404 -0.862151 0.420848 
0.034405 -0.862177 0.416210 
0.034425 -0.862693 0.439928 
0.034436 -0.862952 0.398157 
0.034441 -0.863077 0.416644 
0.034441 -0.863082 0.412011 
0.034466 -0.863711 0.435707 
0.034470 -0.863814 0.431038 
0.034473 -0.863892 0.426378 
0.034475 -0.863939 0.454917 
0.034519 -0.865028 0.450678 
0.034542 -0.865602 0.431931 
0.034548 -0.865774 0.408664 
0.034549 -0.865787 0.413302 
0.034568 -0.866254 0.441744 
0.034597 -0.866985 0.446896 
0.034607 -0.867241 0.461502 
0.034609 -0.867280 0.437507 
0.034687 -0.869245 0.457710 
0.034695 -0.869460 0.452987 
0.034703 -0.869657 0.502511 
0.034721 -0.870105 0.497716 
0.034773 -0.871397 0.493420 
0.034796 -0.871965 0.473830 
0.034804 -0.872170 0.483851 
0.034824 -0.872668 0.489121 
0.034842 -0.873143 0.469544 
0.034853 -0.873395 0.479557 
0.034866 -0.873722 0.474784 
0.034889 -0.874299 0.465258 
0.034894 -0.874442 0.500197 
0.034905 -0.874713 0.515670 
0.034908 -0.874792 0.485306 
0.034957 -0.876023 0.481000 
0.034960 -0.876089 0.511342 
0.034981 -0.876614 0.496374 
0.035014 -0.877445 0.507011 
0.035032 -0.877898 0.492053 
0.035042 -0.878144 0.533310 
0.035063 -0.878679 0.512853 
0.035134 -0.880461 0.529470 
0.035192 -0.881902 0.525109 
0.035289 -0.884330 0.542365 
0.035295 -0.884478 0.526643 
0.035349 -0.885832 0.537979 
0.035352 -0.885905 0.522268 
0.035374 -0.886456 0.533076 
0.035459 -0.888590 0.544977 
0.037984 -0.757377 0.164661 
0.038033 -0.758353 0.164873 
0.039170 -0.781029 0.173379 
0.039708 -0.791755 0.175760 
0.039928 -0.796144 0.119146 
0.040549 -0.808515 0.183191 
0.041150 -0.820498 0.193457 
0.041191 -0.821333 0.189871 
0.041296 -0.823415 0.194145 
0.041311 -0.823713 0.205645 
0.041330 -0.824101 0.186722 
0.041338 -0.824253 0.190545 
0.041355 -0.824601 0.202045 
0.041399 -0.825474 0.198440 
0.041413 -0.825757 0.213836 
0.041460 -0.826681 0.210227 
0.041462 -0.826724 0.214087 
0.041489 -0.827256 0.249301 
0.041505 -0.827589 0.206613 
0.041511 -0.827709 0.225956 
0.041512 -0.827715 0.218206 
0.041533 -0.751319 0.163388 
0.041543 -0.828334 0.245685 
0.041552 -0.828524 0.237887 
0.041560 -0.828686 0.222337 
0.041569 -0.828867 0.257706 
0.041577 -0.829027 0.253790 
0.041596 -0.829397 0.242064 
0.041604 -0.829553 0.234265 
0.041606 -0.829604 0.230371 
0.041609 -0.829647 0.218715 
0.041644 -0.830356 0.242344 
0.041648 -0.830444 0.238438 
0.041657 -0.830615 0.222855 
0.041700 -0.831475 0.234808 
0.041721 -0.831892 0.254667 
0.041724 -0.831952 0.286837 
0.041739 -0.832249 0.282878 
0.041751 -0.832491 0.231173 
0.041753 -0.832526 0.278922 
0.041766 -0.832785 0.274969 
0.041776 -0.832994 0.251031 
0.041783 -0.833123 0.247105 
0.041801 -0.833490 0.227534 
0.041826 -0.833976 0.271328 
0.041848 -0.834421 0.279557 
0.041856 -0.834590 0.259485 
0.041881 -0.835086 0.283843 
0.041884 -0.835150 0.267682 
0.041895 -0.835356 0.263731 
0.041909 -0.835631 0.275909 
0.041921 -0.835875 0.271947 
0.041928 -0.836011 0.296432 
0.041964 -0.759124 0.165085 
0.041992 -0.837295 0.292777 
0.042056 -0.838563 0.289116 
0.042106 -0.839560 0.310132 
0.042131 -0.840071 0.314498 
0.042153 -0.840497 0.310478 
0.042156 -0.840561 0.318873 
0.042173 -0.840904 0.306462 
0.042181 -0.841066 0.294096 
0.042192 -0.841291 0.302447 
0.042220 -0.841842 0.306804 
0.042258 -0.842601 0.298769 
0.042287 -0.843171 0.303123 
0.042366 -0.844758 0.324693 
0.042386 -0.845140 0.363570 
0.042396 -0.766930 0.166783 
0.042435 -0.846127 0.329468 
0.042465 -0.846716 0.359875 
0.042475 -0.846934 0.338330 
0.042507 -0.847555 0.325768 
0.042543 -0.848276 0.356172 
0.042549 -0.848400 0.334627 
0.042577 -0.848966 0.322062 
0.042587 -0.849156 0.343526 
0.042620 -0.849820 0.352463 
0.042622 -0.849851 0.330917 
0.042647 -0.850362 0.318350 
0.042680 -0.851008 0.344275 
0.042697 -0.851348 0.348747 
0.042743 -0.852272 0.349125 
0.042759 -0.852588 0.353611 
0.042821 -0.853823 0.376177 
0.042857 -0.854538 0.372044 
0.042876 -0.854912 0.381124 
0.042880 -0.854990 0.363391 
0.042892 -0.855234 0.367913 
0.042894 -0.855286 0.431656 
0.042903 -0.855454 0.372443 
0.042912 -0.855645 0.359266 
0.042913 -0.855651 0.376982 
0.042921 -0.855825 0.381530 
0.042948 -0.776919 0.172514 
0.042975 -0.856886 0.386498 
0.042981 -0.857011 0.391067 
0.042988 -0.857159 0.427915 
0.042994 -0.857265 0.418656 
0.043020 -0.857797 0.386908 
0.043026 -0.857920 0.391482 
0.043035 -0.858096 0.400653 
0.043039 -0.858177 0.409858 
0.043055 -0.778869 0.172947 
0.043077 -0.858927 0.396482 
0.043081 -0.859016 0.424166 
0.043083 -0.859052 0.405678 
0.043085 -0.859082 0.414907 
0.043130 -0.859981 0.415341 
0.043171 -0.860811 0.401921 
0.043175 -0.860881 0.411149 
0.043219 -0.861754 0.420848 
0.043259 -0.862555 0.398157 
0.043264 -0.862665 0.407384 
0.043291 -0.863186 0.440382 
0.043297 -0.863313 0.435707 
0.043302 -0.863416 0.431038 
0.043306 -0.863495 0.426378 
0.043397 -0.865309 0.455848 
0.043447 -0.866298 0.470967 
0.043452 -0.866402 0.451601 
0.043496 -0.867288 0.452063 
0.043505 -0.867462 0.466704 
0.043506 -0.867474 0.447354 
0.043518 -0.867724 0.461971 
0.043530 -0.867961 0.457245 
0.043594 -0.788617 0.175111 
0.043595 -0.869250 0.448270 
0.043603 -0.869415 0.443560 
0.043633 -0.870022 0.482882 
0.043651 -0.870366 0.478114 
0.043659 -0.870523 0.488144 
0.043677 -0.870895 0.483366 
0.043682 -0.870995 0.493420 
0.043695 -0.871251 0.463849 
0.043726 -0.871861 0.469071 
0.043726 -0.871865 0.493912 
0.043755 -0.872442 0.474307 
0.043782 -0.872993 0.479557 
0.043786 -0.873058 0.540959 
0.043790 -0.873137 0.489610 
0.043791 -0.873172 0.499701 
0.043855 -0.874446 0.505511 
0.043899 -0.875311 0.506011 
0.043903 -0.875407 0.537139 
0.043961 -0.876549 0.511845 
0.043994 -0.877204 0.522553 
0.044009 -0.877508 0.502182 
0.044020 -0.877740 0.533310 
0.044053 -0.796917 0.119294 
0.044082 -0.797429 0.115810 
0.044137 -0.880055 0.529470 
0.044151 -0.880334 0.519223 
0.044160 -0.880516 0.540275 
0.044162 -0.798892 0.119590 
0.044220 -0.881725 0.514868 
0.044245 -0.800394 0.116241 
0.044273 -0.800893 0.112742 
0.044277 -0.882862 0.536423 
0.044323 -0.883776 0.521253 
0.044381 -0.884929 0.527154 
0.044394 -0.885192 0.532561 
0.044467 -0.804402 0.182308 
0.044686 -0.891020 0.557486 
0.044790 -0.810245 0.183632 
0.044799 -0.810410 0.187396 
0.044844 -0.811219 0.183853 
0.044898 -0.812193 0.184073 
0.044907 -0.812356 0.187846 
0.044915 -0.812502 0.191623 
0.045183 -0.817361 0.192769 
0.045283 -0.819166 0.189421 
0.045297 -0.819426 0.197040 
0.045405 -0.821368 0.197507 
0.045415 -0.821554 0.205162 
0.045419 -0.821620 0.208996 
0.045452 -0.822221 0.193915 
0.045464 -0.822439 0.201569 
0.045512 -0.823310 0.197974 
0.045522 -0.823491 0.205645 
0.045559 -0.824165 0.194374 
0.045571 -0.824379 0.202045 
0.045576 -0.824460 0.205887 
0.045579 -0.824523 0.209734 
0.045583 -0.824595 0.217442 
0.045606 -0.825004 0.190770 
0.045629 -0.825429 0.206129 
0.045635 -0.825535 0.213836 
0.045637 -0.825569 0.221561 
0.045682 -0.826381 0.237335 
0.045686 -0.826446 0.233450 
0.045686 -0.826458 0.210227 
0.045688 -0.826493 0.229569 
0.045690 -0.826522 0.225692 
0.045690 -0.826526 0.217951 
0.045741 -0.827456 0.229837 
0.045742 -0.827468 0.214337 
0.045743 -0.827486 0.225956 
0.045744 -0.827498 0.222079 
0.045792 -0.828368 0.233993 
0.045795 -0.828418 0.230104 
0.045796 -0.828449 0.226219 
0.045797 -0.828457 0.218460 
0.045797 -0.828462 0.222337 
0.045850 -0.829423 0.218715 
0.045850 -0.829427 0.222596 
0.045894 -0.830221 0.238438 
0.045898 -0.830290 0.234536 
0.045902 -0.830368 0.215088 
0.045904 -0.759875 0.165297 
0.045912 -0.830551 0.258299 
0.045921 -0.830713 0.254375 
0.045929 -0.830858 0.250454 
0.045942 -0.831091 0.242623 
0.045955 -0.831322 0.262528 
0.045989 -0.831941 0.246821 
0.045995 -0.832050 0.242903 
0.046000 -0.832140 0.238989 
0.046012 -0.832356 0.291128 
0.046018 -0.832458 0.258892 
0.046046 -0.832970 0.283200 
0.046049 -0.833023 0.267073 
0.046062 -0.833249 0.279240 
0.046076 -0.833509 0.275283 
0.046080 -0.833578 0.255252 
0.046082 -0.833616 0.287488 
0.046088 -0.833726 0.251319 
0.046133 -0.834533 0.255545 
0.046142 -0.834701 0.271637 
0.046151 -0.834861 0.283843 
0.046154 -0.834925 0.267682 
0.046176 -0.835318 0.259782 
0.046181 -0.835406 0.275909 
0.046194 -0.835638 0.251895 
0.046194 -0.835650 0.271947 
0.046202 -0.835785 0.296432 
0.046203 -0.835806 0.284164 
0.046218 -0.836083 0.264031 
0.046219 -0.836089 0.280192 
0.046219 -0.836104 0.313097 
0.046221 -0.836126 0.292447 
0.046234 -0.836366 0.300757 
0.046239 -0.836448 0.288465 
0.046254 -0.836727 0.248241 
0.046271 -0.837036 0.280509 
0.046273 -0.837069 0.292777 
0.046281 -0.837226 0.260375 
0.046291 -0.837397 0.256422 
0.046294 -0.837460 0.309440 
0.046306 -0.837668 0.297100 
0.046308 -0.837697 0.284807 
0.046313 -0.837801 0.244582 
0.046317 -0.837862 0.305436 
0.046324 -0.838005 0.322184 
0.046325 -0.838012 0.293106 
0.046338 -0.838250 0.276848 
0.046343 -0.838337 0.289116 
0.046350 -0.838467 0.318165 
0.046358 -0.838609 0.297433 
0.046369 -0.838800 0.305777 
0.046376 -0.838930 0.281143 
0.046376 -0.838940 0.264933 
0.046390 -0.839185 0.301771 
0.046398 -0.839334 0.310132 
0.046401 -0.839385 0.326931 
0.046404 -0.839449 0.273183 
0.046442 -0.840125 0.302109 
0.046470 -0.840631 0.269512 
0.046476 -0.840740 0.331695 
0.046479 -0.840801 0.323259 
0.046495 -0.841095 0.277788 
0.046505 -0.841268 0.319228 
0.046555 -0.842177 0.328018 
0.046557 -0.842202 0.319582 
0.046562 -0.842297 0.274110 
0.046575 -0.842533 0.270122 
0.046578 -0.842598 0.332428 
0.046581 -0.842651 0.315548 
0.046633 -0.843586 0.315899 
0.046658 -0.844038 0.328743 
0.046681 -0.844456 0.333161 
0.046701 -0.844823 0.303799 
0.046703 -0.844851 0.337589 
0.046709 -0.844954 0.312209 
0.046724 -0.845224 0.342027 
0.046733 -0.845385 0.333528 
0.046737 -0.845462 0.325051 
0.046754 -0.845778 0.337960 
0.046806 -0.846706 0.338330 
0.046812 -0.846830 0.329830 
0.046815 -0.846870 0.321354 
0.046840 -0.847327 0.317299 
0.046845 -0.847422 0.347232 
0.046877 -0.848001 0.343151 
0.046893 -0.848297 0.378276 
0.046908 -0.848561 0.339072 
0.046916 -0.848701 0.313594 
0.046922 -0.848814 0.369652 
0.046934 -0.849023 0.374163 
0.046946 -0.849245 0.361047 
0.046991 -0.850059 0.309882 
0.046998 -0.850195 0.348368 
0.047016 -0.850514 0.352846 
0.047032 -0.850810 0.357332 
0.047047 -0.851083 0.361828 
0.047049 -0.851119 0.348747 
0.047061 -0.851334 0.366334 
0.047067 -0.851436 0.353228 
0.047082 -0.851704 0.344650 
0.047085 -0.851765 0.375371 
0.047098 -0.852002 0.362219 
0.047112 -0.852251 0.366728 
0.047134 -0.852652 0.358106 
0.047136 -0.852679 0.375774 
0.047146 -0.852858 0.380310 
0.047149 -0.852922 0.362610 
0.047175 -0.853392 0.371646 
0.047185 -0.853572 0.358492 
0.047196 -0.853770 0.380717 
0.047212 -0.854055 0.389823 
0.047220 -0.854204 0.354376 
0.047222 -0.854245 0.398963 
0.047226 -0.854308 0.372044 
0.047262 -0.854963 0.390238 
0.047268 -0.855068 0.394807 
0.047305 -0.855745 0.386087 
0.047315 -0.855920 0.368307 
0.047318 -0.855975 0.395226 
0.047325 -0.856111 0.404398 
0.047327 -0.856143 0.408997 
0.047359 -0.856726 0.437204 
0.047368 -0.856882 0.395645 
0.047372 -0.856960 0.400231 
0.047374 -0.856993 0.423281 
0.047375 -0.857014 0.404825 
0.047415 -0.857730 0.433006 
0.047422 -0.857865 0.400653 
0.047426 -0.857932 0.419094 
0.047464 -0.858622 0.433456 
0.047469 -0.858715 0.428807 
0.047477 -0.858850 0.414907 
0.047498 -0.859243 0.383157 
0.047507 -0.859386 0.387730 
0.047507 -0.859394 0.438566 
0.047513 -0.859506 0.392311 
0.047518 -0.859602 0.396901 
0.047519 -0.859609 0.429254 
0.047526 -0.859749 0.415341 
0.047540 -0.859990 0.378996 
0.047557 -0.860297 0.388141 
0.047567 -0.787409 0.174895 
0.047572 -0.860575 0.425051 
0.047576 -0.860649 0.411149 
0.047619 -0.861425 0.370676 
0.047622 -0.861471 0.425493 
0.047622 -0.861484 0.402344 
0.047625 -0.861529 0.406958 
0.047626 -0.861551 0.411580 
0.047631 -0.861633 0.375234 
0.047646 -0.861914 0.444607 
0.047674 -0.862419 0.421286 
0.047695 -0.862802 0.445065 
0.047713 -0.863129 0.474266 
0.047716 -0.863183 0.431038 
0.047724 -0.863316 0.421724 
0.047775 -0.864239 0.408238 
0.047775 -0.864246 0.417513 
0.047783 -0.864397 0.450678 
0.047802 -0.864732 0.441290 
0.047827 -0.865187 0.470490 
0.047832 -0.865283 0.451140 
0.047843 -0.865464 0.446438 
0.047870 -0.865960 0.456313 
0.047875 -0.866057 0.413733 
0.047881 -0.866168 0.451601 
0.047891 -0.866352 0.446896 
0.047924 -0.866942 0.471444 
0.047930 -0.867054 0.452063 
0.047940 -0.867228 0.466704 
0.047954 -0.867490 0.461971 
0.047989 -0.868108 0.467178 
0.048003 -0.868372 0.462441 
0.048004 -0.868381 0.477152 
0.048033 -0.868914 0.482397 
0.048052 -0.869253 0.462910 
0.048065 -0.869494 0.458176 
0.048070 -0.869574 0.472876 
0.048086 -0.869867 0.468124 
0.048118 -0.870452 0.473353 
0.048157 -0.871160 0.488632 
0.048183 -0.871630 0.493912 
0.048223 -0.872354 0.514655 
0.048230 -0.872481 0.504511 
0.048232 -0.872505 0.469544 
0.048251 -0.872862 0.509830 
0.048254 -0.872902 0.489610 
0.048272 -0.873235 0.530716 
0.048274 -0.873280 0.484821 
0.048279 -0.873368 0.494897 
0.048285 -0.873468 0.536095 
0.048289 -0.873536 0.520507 
0.048294 -0.873633 0.480038 
0.048299 -0.873725 0.510334 
0.048303 -0.873804 0.500197 
0.048323 -0.874154 0.485306 
0.048326 -0.874211 0.505511 
0.048327 -0.874237 0.495389 
0.048350 -0.874644 0.490587 
0.048374 -0.875075 0.506011 
0.048390 -0.875370 0.542538 
0.048399 -0.875538 0.501190 
0.048399 -0.875539 0.526895 
0.048413 -0.875795 0.516685 
0.048419 -0.875900 0.486275 
0.048421 -0.875940 0.506511 
0.048424 -0.875975 0.496374 
0.048426 -0.876023 0.537662 
0.048431 -0.876110 0.522041 
0.048494 -0.877251 0.527925 
0.048495 -0.877271 0.502182 
0.048537 -0.878038 0.512853 
0.048555 -0.878357 0.533829 
0.048604 -0.879236 0.518715 
0.048621 -0.879542 0.524087 
0.048661 -0.880279 0.540275 
0.048697 -0.880917 0.535385 
0.048763 -0.882116 0.525620 
0.048778 -0.882386 0.531015 
0.048794 -0.882677 0.520745 
0.048803 -0.882833 0.541842 
0.048812 -0.883011 0.547274 
0.048885 -0.884332 0.537460 
0.049000 -0.886408 0.549378 
0.049195 -0.889933 0.556956 
0.049242 -0.890780 0.557486 
0.049335 -0.892473 0.558546 
0.049462 -0.818768 0.185618 
0.049505 -0.819492 0.212334 
0.049561 -0.820409 0.208750 
0.049589 -0.820869 0.189871 
0.049670 -0.757813 0.154521 
0.049682 -0.822421 0.216933 
0.049725 -0.758656 0.165085 
0.049728 -0.823179 0.240385 
0.049732 -0.823248 0.205645 
0.049753 -0.759087 0.158241 
0.049772 -0.759367 0.161766 
0.049786 -0.824136 0.202045 
0.049799 -0.824361 0.221302 
0.049839 -0.825008 0.198440 
0.049890 -0.825864 0.194832 
0.049915 -0.826278 0.225692 
0.050023 -0.828056 0.237887 
0.050085 -0.829084 0.234265 
0.050146 -0.830097 0.230638 
0.050177 -0.830612 0.250454 
0.050226 -0.831422 0.254667 
0.050243 -0.831695 0.246821 
0.050274 -0.832212 0.258892 
0.050295 -0.832555 0.271020 
0.050308 -0.832777 0.267073 
0.050378 -0.833932 0.263430 
0.050452 -0.835159 0.275909 
0.050543 -0.836676 0.305093 
0.050550 -0.836792 0.313447 
0.050576 -0.837213 0.309440 
0.050623 -0.837997 0.301433 
0.050665 -0.838682 0.281143 
0.050693 -0.839152 0.318519 
0.050702 -0.839302 0.297767 
0.050762 -0.840285 0.285771 
0.050780 -0.840591 0.294096 
0.050800 -0.840920 0.290093 
0.050805 -0.840998 0.327655 
0.050890 -0.842417 0.323976 
0.050966 -0.843674 0.337219 
0.050989 -0.844048 0.341653 
0.050998 -0.844206 0.333161 
0.051130 -0.846391 0.381980 
0.051175 -0.847134 0.377870 
0.051206 -0.847648 0.369253 
0.051271 -0.848717 0.356559 
0.051274 -0.848772 0.374163 
0.051288 -0.848994 0.361047 
0.051303 -0.849248 0.365544 
0.051364 -0.850262 0.352846 
0.051457 -0.851791 0.349125 
0.051475 -0.852096 0.393551 
0.051523 -0.852894 0.389408 
0.051529 -0.786181 0.174678 
0.051793 -0.857362 0.437658 
0.051800 -0.857477 0.433006 
0.051863 -0.858516 0.401076 
0.051914 -0.859355 0.429254 
0.051920 -0.859469 0.406105 
0.051945 -0.859884 0.443691 
0.052026 -0.861216 0.425493 
0.052031 -0.861293 0.416210 
0.052031 -0.861296 0.411580 
0.052083 -0.862164 0.421286 
0.052084 -0.862170 0.454451 
0.052149 -0.863256 0.450216 
0.052161 -0.863455 0.464811 
0.052250 -0.864931 0.470490 
0.052283 -0.865471 0.461032 
0.052285 -0.865499 0.475709 
0.052372 -0.799039 0.181204 
0.052558 -0.870018 0.508319 
0.052587 -0.870494 0.503511 
0.052631 -0.871236 0.514147 
0.052639 -0.871372 0.493912 
0.052750 -0.873210 0.536095 
0.052771 -0.873546 0.500197 
0.052806 -0.874135 0.521019 
0.052824 -0.874424 0.526380 
0.052874 -0.875257 0.491076 
0.052891 -0.875537 0.532272 
0.052897 -0.875641 0.486275 
0.053071 -0.878506 0.544642 
0.053387 -0.883744 0.553247 
0.053530 -0.816716 0.188971 
0.053667 -0.818799 0.193228 
0.053723 -0.760078 0.161974 
0.053741 -0.760341 0.165510 
0.053772 -0.760776 0.158648 
0.053820 -0.761459 0.155319 
0.053887 -0.822156 0.216933 
0.053948 -0.823093 0.213336 
0.054006 -0.764085 0.152377 
0.054012 -0.824060 0.229035 
0.054013 -0.824087 0.225166 
0.054072 -0.824976 0.233179 
0.054121 -0.765720 0.149224 
0.054140 -0.826023 0.221820 
0.054142 -0.766009 0.142337 
0.054167 -0.766362 0.145873 
0.054253 -0.827747 0.202996 
0.054287 -0.828256 0.273717 
0.054311 -0.828623 0.199374 
0.054326 -0.828850 0.210965 
0.054332 -0.828949 0.277970 
0.054341 -0.829085 0.258003 
0.054361 -0.769114 0.167419 
0.054364 -0.829440 0.270092 
0.054376 -0.829620 0.242344 
0.054376 -0.829621 0.282235 
0.054379 -0.829658 0.266158 
0.054385 -0.829760 0.207339 
0.054412 -0.769836 0.164053 
0.054414 -0.830200 0.254375 
0.054462 -0.770542 0.160685 
0.054486 -0.831300 0.250742 
0.054516 -0.831760 0.262829 
0.054543 -0.832158 0.287163 
0.054557 -0.832384 0.247105 
0.063205 -0.894234 0.565643 
0.082403 -0.902860 0.572046 
0.101133 -0.903508 0.573647 
0.104714 -0.894119 0.118531 
0.104938 -0.896038 0.102802 
0.106202 -0.906828 0.128331 
0.106388 -0.908418 0.116369 
0.106446 -0.908914 0.112377 
0.106502 -0.909392 0.108383 
0.054645 -0.833726 0.291788 
0.054685 -0.834329 0.296098 
0.054696 -0.834504 0.239816 
0.054723 -0.834910 0.300419 
0.054821 -0.836407 0.305093 
0.054929 -0.777142 0.147925 
0.055012 -0.839326 0.314498 
0.055043 -0.839797 0.327293 
0.055064 -0.779054 0.158908 
0.055075 -0.840282 0.323259 
0.055102 -0.840688 0.310825 
0.055112 -0.779738 0.155498 
0.055132 -0.841149 0.332062 
0.055135 -0.780065 0.173379 
0.055160 -0.780408 0.152086 
0.055167 -0.841682 0.319582 
0.055280 -0.843403 0.337219 
0.055327 -0.844128 0.346096 
0.055342 -0.782986 0.174029 
0.055425 -0.845627 0.342402 
0.055429 -0.845683 0.355399 
0.055530 -0.847223 0.351698 
0.055628 -0.848721 0.361047 
0.055645 -0.848974 0.365544 
0.055780 -0.851035 0.370848 
0.055785 -0.851112 0.406844 
0.055844 -0.852021 0.416464 
0.055884 -0.852619 0.389408 
0.055896 -0.852813 0.398540 
0.055900 -0.852875 0.403119 
0.055913 -0.853066 0.376177 
0.055950 -0.853634 0.394389 
0.055963 -0.853826 0.412734 
0.055994 -0.854306 0.385676 
0.056018 -0.854674 0.422397 
0.056073 -0.855506 0.427469 
0.056104 -0.855977 0.381937 
0.056113 -0.793896 0.180101 
0.056184 -0.857201 0.433006 
0.056235 -0.857975 0.438112 
0.056327 -0.859391 0.467627 
0.056389 -0.860323 0.448831 
0.056423 -0.860846 0.473304 
0.056436 -0.861045 0.483257 
0.056460 -0.861419 0.463864 
0.056477 -0.861668 0.459154 
0.056491 -0.861893 0.454451 
0.056516 -0.862268 0.479003 
0.056516 -0.862269 0.445065 
0.056726 -0.865467 0.495731 
0.056801 -0.803625 0.182308 
0.056867 -0.867617 0.491942 
0.057037 -0.870214 0.503511 
0.057175 -0.872323 0.509830 
0.057332 -0.874711 0.521530 
0.057389 -0.811956 0.199192 
0.057431 -0.812544 0.188071 
0.057450 -0.812815 0.195639 
0.057480 -0.876973 0.517700 
0.057500 -0.813515 0.188296 
0.057506 -0.877375 0.544116 
0.057510 -0.813659 0.192082 
0.057549 -0.878034 0.539230 
0.057631 -0.879275 0.529470 
0.057703 -0.880373 0.535385 
0.057743 -0.816959 0.208011 
0.057806 -0.817857 0.204436 
0.057814 -0.817968 0.231279 
0.057849 -0.882614 0.552717 
0.057878 -0.818871 0.235406 
0.057885 -0.818967 0.227699 
0.057930 -0.819605 0.197273 
0.057941 -0.819754 0.239545 
0.057954 -0.819950 0.224114 
0.058006 -0.820677 0.201332 
0.058021 -0.820889 0.228233 
0.058022 -0.820905 0.216678 
0.058086 -0.821808 0.232365 
0.058088 -0.821840 0.213085 
0.058091 -0.821875 0.224640 
0.058137 -0.822530 0.244265 
0.058144 -0.822627 0.240385 
0.058148 -0.822696 0.205645 
0.058159 -0.822845 0.221043 
0.058196 -0.823369 0.248437 
0.058227 -0.823799 0.217442 
0.058253 -0.768297 0.139341 
0.058285 -0.824624 0.237060 
0.058293 -0.824738 0.213836 
0.058293 -0.768826 0.167419 
0.058310 -0.824986 0.256817 
0.058311 -0.769064 0.170998 
0.058321 -0.825141 0.252913 
0.058331 -0.825279 0.249013 
0.058348 -0.769547 0.164053 
0.058358 -0.825660 0.210227 
0.058363 -0.825735 0.221820 
0.058367 -0.769801 0.167631 
0.058389 -0.826095 0.253205 
0.058402 -0.770254 0.160685 
0.058407 -0.826355 0.245401 
0.058422 -0.770523 0.164261 
0.058500 -0.827665 0.261626 
0.058570 -0.828660 0.277970 
0.058578 -0.772585 0.143613 
0.058580 -0.828796 0.258003 
0.058597 -0.829039 0.286186 
0.058641 -0.829669 0.290469 
0.058655 -0.829862 0.274343 
0.058684 -0.830276 0.282557 
0.058687 -0.830319 0.266463 
0.058701 -0.830519 0.262528 
0.058727 -0.774546 0.143977 
0.058739 -0.831048 0.270710 
0.058766 -0.831429 0.303383 
0.058797 -0.831868 0.287163 
0.058817 -0.832158 0.295430 
0.058818 -0.832166 0.283200 
0.058833 -0.832384 0.337157 
0.058841 -0.832494 0.291458 
0.058856 -0.832704 0.275283 
0.058859 -0.832742 0.299744 
0.058873 -0.832946 0.271328 
0.058876 -0.776507 0.144342 
0.058884 -0.833098 0.295764 
0.058902 -0.776851 0.147925 
0.058904 -0.833390 0.279557 
0.058907 -0.833428 0.312396 
0.058927 -0.777179 0.151514 
0.058937 -0.833844 0.333513 
0.058937 -0.833844 0.308402 
0.058942 -0.833926 0.325118 
0.058973 -0.777785 0.158708 
0.059003 -0.834780 0.308748 
0.059014 -0.778325 0.165925 
0.059024 -0.778468 0.155303 
0.059031 -0.835178 0.304751 
0.059039 -0.835297 0.313097 
0.059068 -0.779040 0.162517 
0.059074 -0.835792 0.317456 
0.059080 -0.835869 0.347105 
0.059121 -0.836448 0.343067 
0.059139 -0.836715 0.326206 
0.059160 -0.837009 0.339030 
0.059167 -0.837110 0.351918 
0.059173 -0.837196 0.322184 
0.059197 -0.780746 0.173596 
0.059239 -0.838127 0.322543 
0.059251 -0.838295 0.343824 
0.059254 -0.781494 0.170178 
0.059264 -0.838476 0.335366 
0.059273 -0.781749 0.148858 
0.059301 -0.839000 0.331329 
0.059364 -0.782945 0.163332 
0.059432 -0.840856 0.332062 
0.059496 -0.784688 0.149417 
0.059565 -0.785602 0.160303 
0.059578 -0.842916 0.358702 
0.059601 -0.843241 0.350167 
0.059618 -0.786292 0.156864 
0.059669 -0.786967 0.153422 
0.059783 -0.845823 0.381980 
0.059791 -0.845929 0.364360 
0.059866 -0.846996 0.391458 
0.059900 -0.847478 0.378276 
0.059902 -0.847507 0.360656 
0.059935 -0.790481 0.175760 
0.059936 -0.790488 0.161300 
0.059948 -0.848149 0.356559 
0.059951 -0.848203 0.374163 
0.059986 -0.848691 0.387749 
0.059988 -0.791182 0.157840 
0.060001 -0.848909 0.370051 
0.060029 -0.849301 0.379090 
0.060040 -0.791861 0.154376 
0.060074 -0.849931 0.415587 
0.060105 -0.850371 0.384033 
0.060131 -0.850739 0.370848 
0.060133 -0.850773 0.402266 
0.060135 -0.850798 0.420628 
0.060137 -0.850833 0.411431 
0.060145 -0.850942 0.375371 
0.060178 -0.851414 0.388994 
0.060192 -0.851612 0.398118 
0.060201 -0.851732 0.411865 
0.060244 -0.852344 0.367123 
0.060261 -0.852578 0.403119 
0.060314 -0.853337 0.394389 
0.060327 -0.853516 0.408136 
0.060384 -0.854324 0.399386 
0.060393 -0.796516 0.180763 
0.060447 -0.855208 0.427469 
0.060454 -0.855310 0.418217 
0.060503 -0.856012 0.432556 
0.060514 -0.856166 0.423281 
0.060535 -0.856462 0.466195 
0.060548 -0.856648 0.442317 
0.060554 -0.856733 0.476094 
0.060558 -0.856787 0.437658 
0.060633 -0.857845 0.457276 
0.060648 -0.858062 0.452588 
0.060662 -0.858254 0.447907 
0.060678 -0.858483 0.462444 
0.060684 -0.858565 0.438566 
0.060688 -0.800407 0.181645 
0.060692 -0.858684 0.433906 
0.060700 -0.858797 0.472342 
0.060721 -0.859092 0.467627 
0.060721 -0.859094 0.502274 
0.060736 -0.859308 0.443691 
0.060820 -0.860487 0.458685 
0.060835 -0.860710 0.453985 
0.060875 -0.861272 0.498511 
0.060886 -0.861421 0.473785 
0.060924 -0.861968 0.479003 
0.060974 -0.862678 0.450216 
0.061028 -0.863434 0.494739 
0.061076 -0.864119 0.515394 
0.061087 -0.864264 0.505296 
0.061118 -0.864711 0.490465 
0.061130 -0.806242 0.182970 
0.061143 -0.806410 0.186721 
0.061179 -0.865579 0.490957 
0.061207 -0.865967 0.486189 
0.061234 -0.866354 0.511610 
0.061330 -0.867708 0.487167 
0.061340 -0.867853 0.522775 
0.061364 -0.809325 0.187396 
0.061497 -0.870074 0.534527 
0.061540 -0.870686 0.529679 
0.061599 -0.871511 0.514655 
0.061682 -0.872692 0.520507 
0.061703 -0.872983 0.525865 
0.061704 -0.813810 0.211082 
0.061752 -0.873676 0.542011 
0.061768 -0.814648 0.203710 
0.061773 -0.814720 0.207519 
0.061834 -0.815526 0.200143 
0.061841 -0.815615 0.203952 
0.061850 -0.815740 0.211583 
0.061872 -0.875373 0.543064 
0.061890 -0.816266 0.192769 
0.061900 -0.816389 0.196573 
0.061908 -0.816495 0.200381 
0.061953 -0.817097 0.189196 
0.061964 -0.817237 0.192998 
0.061973 -0.817359 0.196806 
0.061988 -0.817550 0.204436 
0.061999 -0.817705 0.215914 
0.062038 -0.877728 0.539230 
0.062054 -0.818432 0.200856 
0.062073 -0.818669 0.216169 
0.062083 -0.878361 0.534347 
0.062123 -0.878922 0.550597 
0.062125 -0.819357 0.267002 
0.062139 -0.819553 0.208750 
0.062154 -0.819747 0.259220 
0.062182 -0.879768 0.551127 
0.062188 -0.820196 0.247572 
0.062212 -0.820511 0.263414 
0.062219 -0.820605 0.224377 
0.062239 -0.820868 0.255630 
0.062269 -0.821265 0.243981 
0.062277 -0.821362 0.240105 
0.062284 -0.821461 0.263719 
0.062290 -0.821533 0.213085 
0.062290 -0.821543 0.228500 
0.062293 -0.821573 0.220784 
0.062298 -0.821650 0.259821 
0.062323 -0.821972 0.252036 
0.062349 -0.822319 0.240385 
0.062355 -0.822399 0.236509 
