# .PCD v.7 - Point Cloud Data file format
VERSION .7
FIELDS x y z
SIZE 4 4 4
TYPE F F F
COUNT 1 1 1
WIDTH 1594
HEIGHT 1
POINTS 1594
DATA ascii
-0.223059 0.413240 0.104107 
-0.223031 0.418291 0.111620 
-0.223018 0.413163 0.099797 
-0.222999 0.413128 0.072258 
-0.222984 0.413100 0.125786 
-0.222968 0.418173 0.135889 
-0.222966 0.428670 0.200143 
-0.222961 0.408051 0.052978 
-0.222958 0.413051 0.095497 
-0.222908 0.428558 0.195170 
-0.222907 0.428557 0.225255 
-0.222882 0.418011 0.094228 
-0.222879 0.450791 0.389369 
-0.222879 0.412905 0.091206 
-0.222878 0.418004 0.129148 
-0.222870 0.428486 0.192689 
-0.222861 0.445013 0.410270 
-0.222855 0.412862 0.110474 
-0.222854 0.450741 0.418192 
-0.222847 0.412847 0.074306 
-0.222842 0.412836 0.106155 
-0.222829 0.407809 0.063244 
-0.222809 0.412776 0.101845 
-0.222800 0.417857 0.113687 
-0.222779 0.456449 0.404011 
-0.222770 0.444831 0.358144 
-0.222769 0.462412 0.438376 
-0.222759 0.412683 0.053431 
-0.222758 0.412681 0.097544 
-0.222747 0.450524 0.410625 
-0.222746 0.444783 0.413716 
-0.222722 0.428202 0.185276 
-0.222721 0.412614 0.127833 
-0.222697 0.407569 0.048814 
-0.222691 0.412558 0.076352 
-0.222688 0.412551 0.093253 
-0.222687 0.417645 0.096294 
-0.222682 0.450393 0.399653 
-0.222662 0.428085 0.182814 
-0.222641 0.450310 0.378541 
-0.222624 0.412434 0.112520 
-0.222623 0.412431 0.063784 
-0.222620 0.456123 0.429671 
-0.222612 0.450252 0.381940 
-0.222611 0.417503 0.131214 
-0.222599 0.412387 0.088971 
-0.222593 0.407378 0.050840 
-0.222592 0.444475 0.344847 
-0.222586 0.427939 0.207240 
-0.222576 0.427921 0.204743 
-0.222575 0.417436 0.081287 
-0.222575 0.450176 0.385345 
-0.222573 0.417432 0.111391 
-0.222563 0.417413 0.107038 
-0.222561 0.427891 0.202249 
-0.222540 0.427850 0.199760 
-0.222531 0.412261 0.078397 
-0.222529 0.444350 0.395296 
-0.222524 0.427820 0.177904 
-0.222513 0.450052 0.417553 
-0.222513 0.427799 0.197275 
-0.222492 0.412189 0.095297 
-0.222492 0.412188 0.084701 
-0.222489 0.412183 0.065828 
-0.222452 0.427681 0.227361 
-0.222412 0.412041 0.091015 
-0.222409 0.449840 0.395600 
-0.222408 0.412033 0.059565 
-0.222407 0.417119 0.083351 
-0.222404 0.449830 0.409992 
-0.222397 0.427576 0.189847 
-0.222383 0.449788 0.421025 
-0.222366 0.411956 0.080440 
-0.222350 0.411926 0.067871 
-0.222343 0.416999 0.113454 
-0.222342 0.416997 0.109101 
-0.222325 0.416965 0.117815 
-0.222314 0.411859 0.086744 
-0.222305 0.449631 0.374550 
-0.222293 0.411819 0.097340 
-0.222291 0.427373 0.184917 
-0.222291 0.449602 0.361065 
-0.222282 0.411800 0.061608 
-0.222253 0.449524 0.402468 
-0.222222 0.411688 0.093058 
-0.222207 0.411661 0.069913 
-0.222207 0.443706 0.304094 
-0.222205 0.443703 0.286500 
-0.222197 0.411643 0.082482 
-0.222185 0.427169 0.158774 
-0.222180 0.406623 0.024283 
-0.222163 0.427127 0.180006 
-0.222162 0.427124 0.206845 
-0.222135 0.427073 0.201863 
-0.222132 0.411522 0.088785 
-0.222127 0.406526 0.026305 
-0.222127 0.411512 0.047088 
-0.222124 0.449264 0.391560 
-0.222116 0.406506 0.040527 
-0.222113 0.427031 0.199378 
-0.222104 0.443501 0.398087 
-0.222081 0.416508 0.119876 
-0.222070 0.406422 0.028326 
-0.222060 0.411389 0.071954 
-0.222035 0.416422 0.124245 
-0.222033 0.443360 0.300888 
-0.222030 0.443353 0.289166 
-0.222029 0.406347 0.042548 
-0.222027 0.411328 0.049128 
-0.222009 0.406309 0.030346 
-0.222004 0.454860 0.406223 
-0.221967 0.443228 0.350326 
-0.221959 0.448930 0.370574 
-0.221943 0.406189 0.032366 
-0.221929 0.426676 0.172675 
-0.221917 0.426654 0.187018 
-0.221916 0.443126 0.347013 
-0.221909 0.411109 0.073993 
-0.221880 0.411055 0.067728 
-0.221863 0.426551 0.160873 
-0.221833 0.416042 0.121935 
-0.221817 0.448643 0.405281 
-0.221812 0.416004 0.078892 
-0.221788 0.448585 0.321879 
-0.221778 0.415940 0.126303 
-0.221760 0.454361 0.424239 
-0.221754 0.410821 0.076031 
-0.221744 0.405825 0.064993 
-0.221744 0.426321 0.167812 
-0.221743 0.426320 0.208944 
-0.221743 0.426319 0.211442 
-0.221738 0.410791 0.069765 
-0.221737 0.426307 0.213943 
-0.221730 0.410776 0.082309 
-0.221713 0.448432 0.394362 
-0.221710 0.426255 0.201476 
-0.221704 0.448414 0.419739 
-0.221687 0.426211 0.198995 
-0.221661 0.442617 0.294504 
-0.221643 0.442581 0.288662 
-0.221610 0.442516 0.306256 
-0.221606 0.405573 0.067011 
-0.221595 0.448195 0.373354 
-0.221591 0.410519 0.071802 
-0.221591 0.448186 0.363250 
-0.221579 0.448162 0.376735 
-0.221579 0.426003 0.174772 
-0.221565 0.453962 0.409057 
-0.221557 0.410456 0.084345 
-0.221554 0.448111 0.380124 
-0.221538 0.425924 0.162969 
-0.221508 0.415433 0.076674 
-0.221508 0.448017 0.353212 
-0.221472 0.447946 0.404652 
-0.221464 0.405312 0.069026 
-0.221451 0.410260 0.051058 
-0.221425 0.447851 0.390329 
-0.221407 0.442109 0.262904 
-0.221404 0.425667 0.169907 
-0.221395 0.405186 0.034312 
-0.221380 0.410129 0.086379 
-0.221321 0.405051 0.036326 
-0.221320 0.425506 0.208545 
-0.221302 0.425471 0.203570 
-0.221295 0.447587 0.397164 
-0.221281 0.441857 0.352486 
-0.221277 0.441850 0.273917 
-0.221244 0.447484 0.366020 
-0.221243 0.404908 0.038340 
-0.221232 0.447461 0.362663 
-0.221231 0.409853 0.055125 
-0.221225 0.425322 0.176865 
-0.221216 0.447427 0.400590 
-0.221212 0.447420 0.359313 
-0.221207 0.425289 0.165063 
-0.221199 0.409793 0.088412 
-0.221164 0.447322 0.324060 
-0.221115 0.409637 0.057156 
-0.221083 0.441464 0.296661 
-0.221079 0.425042 0.128374 
-0.221077 0.441450 0.290819 
-0.221061 0.441419 0.302526 
-0.221036 0.452878 0.379744 
-0.221011 0.447012 0.330058 
-0.220994 0.409414 0.059187 
-0.220988 0.424868 0.160238 
-0.220987 0.404438 0.032227 
-0.220977 0.441252 0.279204 
-0.220966 0.452734 0.386563 
-0.220962 0.409354 0.079932 
-0.220941 0.424776 0.121599 
-0.220936 0.470862 0.444221 
-0.220934 0.424764 0.144098 
-0.220929 0.441156 0.314320 
-0.220925 0.446839 0.410906 
-0.220920 0.414331 0.036954 
-0.220917 0.404311 0.034238 
-0.220891 0.441079 0.265059 
-0.220886 0.446761 0.365429 
-0.220874 0.446735 0.362075 
-0.220871 0.409186 0.052978 
-0.220871 0.446730 0.375532 
-0.220859 0.424619 0.200703 
-0.220843 0.404176 0.036248 
-0.220837 0.440971 0.256732 
-0.220822 0.446632 0.355390 
-0.220819 0.440935 0.281851 
-0.220818 0.424541 0.130463 
-0.220817 0.446620 0.382301 
-0.220804 0.409061 0.044759 
-0.220794 0.409043 0.081961 
-0.220783 0.446553 0.403394 
-0.220776 0.446538 0.385696 
-0.220765 0.404033 0.038257 
-0.220759 0.424427 0.114855 
-0.220740 0.440777 0.276071 
-0.220736 0.446457 0.348734 
-0.220736 0.424382 0.119267 
-0.220730 0.440757 0.259347 
-0.220694 0.424302 0.123687 
-0.220690 0.440677 0.317010 
-0.220680 0.446344 0.345417 
-0.220668 0.446320 0.392505 
-0.220668 0.408809 0.036561 
-0.220664 0.424244 0.162326 
-0.220644 0.413814 0.097544 
-0.220643 0.408764 0.057034 
-0.220590 0.408665 0.038588 
-0.220588 0.440474 0.278711 
-0.220583 0.413698 0.045143 
-0.220553 0.424032 0.132550 
-0.220551 0.424027 0.159921 
-0.220535 0.446050 0.326234 
-0.220534 0.446048 0.368194 
-0.220530 0.446040 0.371559 
-0.220525 0.423978 0.116941 
-0.220523 0.408541 0.059061 
-0.220507 0.440312 0.292970 
-0.220506 0.403560 0.044280 
-0.220502 0.440302 0.298813 
-0.220496 0.445971 0.378308 
-0.220488 0.413521 0.047188 
-0.220468 0.440235 0.304677 
-0.220452 0.423838 0.202789 
-0.220444 0.440186 0.319703 
-0.220443 0.423819 0.125773 
-0.220434 0.423803 0.178605 
-0.220432 0.423799 0.157521 
-0.220430 0.440158 0.281354 
-0.220412 0.403386 0.046286 
-0.220389 0.413335 0.049232 
-0.220382 0.413321 0.095297 
-0.220373 0.445723 0.348160 
-0.220371 0.440041 0.267209 
-0.220370 0.445717 0.332230 
-0.220335 0.423611 0.164411 
-0.220333 0.439966 0.258881 
-0.220331 0.408185 0.044664 
-0.220314 0.423571 0.110226 
-0.220313 0.439925 0.316469 
-0.220307 0.451384 0.381940 
-0.220305 0.439909 0.289804 
-0.220288 0.408105 0.054889 
-0.220286 0.413141 0.051276 
-0.220284 0.423515 0.134634 
-0.220270 0.408072 0.063110 
-0.220269 0.413110 0.074149 
-0.220268 0.408068 0.034460 
-0.220250 0.439800 0.307353 
-0.220237 0.408010 0.046687 
-0.220227 0.423404 0.162005 
-0.220224 0.451214 0.388757 
-0.220221 0.439741 0.261495 
-0.220198 0.439695 0.278219 
-0.220187 0.423328 0.127856 
-0.220184 0.412950 0.097340 
-0.220183 0.407910 0.071345 
-0.220179 0.423313 0.152737 
-0.220177 0.423308 0.139074 
-0.220166 0.445304 0.316469 
-0.220137 0.407825 0.065132 
-0.220136 0.469157 0.438717 
-0.220119 0.439538 0.298294 
-0.220109 0.423177 0.132283 
-0.220102 0.439504 0.264112 
-0.220099 0.423159 0.168906 
-0.220099 0.445167 0.307308 
-0.220093 0.445157 0.334956 
-0.220077 0.423116 0.116703 
-0.220075 0.445121 0.384472 
-0.220068 0.439436 0.319158 
-0.220060 0.445089 0.350904 
-0.220042 0.423049 0.204872 
-0.220035 0.407636 0.040527 
-0.220032 0.407632 0.073367 
-0.220025 0.412652 0.103674 
-0.220011 0.422989 0.136716 
-0.220002 0.444972 0.331675 
-0.220001 0.422971 0.166493 
-0.220000 0.407571 0.067154 
-0.219999 0.439297 0.226494 
-0.219982 0.412572 0.099381 
-0.219958 0.439216 0.275093 
-0.219951 0.450655 0.402468 
-0.219937 0.439174 0.258416 
-0.219935 0.444837 0.304094 
-0.219932 0.439164 0.295116 
-0.219928 0.422829 0.129937 
-0.219928 0.407438 0.060955 
-0.219927 0.407437 0.052752 
-0.219924 0.439148 0.247554 
-0.219907 0.444781 0.394673 
-0.219905 0.422785 0.147974 
-0.219899 0.444764 0.408997 
-0.219898 0.422773 0.164086 
-0.219885 0.444736 0.340976 
-0.219878 0.439057 0.283500 
-0.219878 0.444721 0.310002 
-0.219872 0.450493 0.416913 
-0.219871 0.439042 0.306823 
-0.219870 0.422717 0.154817 
-0.219861 0.422701 0.114388 
-0.219861 0.450469 0.405911 
-0.219847 0.438994 0.269353 
-0.219844 0.422669 0.173404 
-0.219816 0.407231 0.054772 
-0.219796 0.438893 0.312708 
-0.219776 0.412185 0.101420 
-0.219773 0.444510 0.356976 
-0.219768 0.438837 0.331042 
-0.219761 0.450265 0.409359 
-0.219759 0.422505 0.145601 
-0.219757 0.422501 0.170985 
-0.219744 0.450230 0.420382 
-0.219740 0.444442 0.353647 
-0.219711 0.412064 0.053205 
-0.219700 0.407017 0.056791 
-0.219672 0.406964 0.022213 
-0.219665 0.406952 0.048605 
-0.219664 0.422322 0.132015 
-0.219661 0.450059 0.370574 
-0.219653 0.450043 0.412814 
-0.219652 0.438606 0.280362 
-0.219651 0.444263 0.312698 
-0.219651 0.450040 0.363838 
-0.219648 0.438597 0.309496 
-0.219645 0.438592 0.255347 
-0.219624 0.406875 0.024231 
-0.219608 0.422215 0.143233 
-0.219605 0.422208 0.150052 
-0.219584 0.438470 0.266254 
-0.219582 0.461822 0.432902 
-0.219581 0.406795 0.058808 
-0.219572 0.406778 0.026248 
-0.219568 0.422137 0.136440 
-0.219566 0.422133 0.166164 
-0.219562 0.406761 0.050623 
-0.219561 0.406760 0.040440 
-0.219554 0.438409 0.228636 
-0.219550 0.422103 0.125264 
-0.219549 0.444057 0.286000 
-0.219532 0.444022 0.327850 
-0.219515 0.406673 0.028265 
-0.219510 0.438322 0.231200 
-0.219502 0.443961 0.309472 
-0.219490 0.438282 0.283000 
-0.219489 0.438280 0.333743 
-0.219489 0.411647 0.071802 
-0.219478 0.449686 0.390944 
-0.219476 0.406600 0.042456 
-0.219455 0.406563 0.052639 
-0.219454 0.406561 0.030281 
-0.219452 0.421915 0.140871 
-0.219443 0.443842 0.337120 
-0.219443 0.438187 0.321299 
-0.219438 0.438178 0.249694 
-0.219430 0.438162 0.260556 
-0.219419 0.438139 0.312171 
-0.219417 0.449560 0.394362 
-0.219396 0.421807 0.134091 
-0.219395 0.443744 0.294504 
-0.219389 0.406441 0.032297 
-0.219384 0.443723 0.300369 
-0.219364 0.411414 0.059313 
-0.219346 0.437994 0.252288 
-0.219320 0.406313 0.034312 
-0.219314 0.449349 0.412178 
-0.219301 0.449322 0.373354 
-0.219300 0.421623 0.152127 
-0.219296 0.421614 0.127338 
-0.219291 0.406259 0.046487 
-0.219291 0.421604 0.138515 
-0.219277 0.443505 0.312164 
-0.219269 0.437841 0.308962 
-0.219241 0.411181 0.061347 
-0.219229 0.421486 0.168238 
-0.219203 0.443357 0.297176 
-0.219198 0.401166 0.027960 
-0.219193 0.406077 0.048501 
-0.219183 0.437669 0.314846 
-0.219169 0.411047 0.069618 
-0.219157 0.421347 0.103118 
-0.219138 0.401055 0.029954 
-0.219133 0.410978 0.055125 
-0.219124 0.421284 0.136164 
-0.219106 0.410929 0.103241 
-0.219106 0.443160 0.411158 
-0.219105 0.437513 0.230773 
-0.219090 0.405886 0.050514 
-0.219088 0.405883 0.040352 
-0.219088 0.448886 0.330610 
-0.219062 0.437427 0.268391 
-0.219060 0.421161 0.175135 
-0.219056 0.437416 0.233337 
-0.219041 0.405795 0.028204 
-0.219023 0.421090 0.147381 
-0.219010 0.421064 0.140587 
-0.219003 0.405724 0.042365 
-0.218994 0.442934 0.288158 
-0.218985 0.410702 0.048919 
-0.218980 0.405683 0.030216 
-0.218977 0.421001 0.172720 
-0.218955 0.448614 0.369384 
-0.218953 0.448609 0.366020 
-0.218949 0.448602 0.372755 
-0.218948 0.437199 0.251830 
-0.218947 0.420944 0.105189 
-0.218945 0.420939 0.118299 
-0.218935 0.437174 0.285136 
-0.218919 0.437141 0.262692 
-0.218917 0.410575 0.090443 
-0.218916 0.420883 0.161041 
-0.218916 0.405563 0.032227 
-0.218907 0.420866 0.122686 
-0.218898 0.410538 0.059187 
-0.218892 0.410528 0.105272 
-0.218888 0.420831 0.170310 
-0.218883 0.410510 0.050949 
-0.218876 0.400576 0.021925 
-0.218847 0.405435 0.034238 
-0.218818 0.448333 0.333342 
-0.218818 0.410388 0.086197 
-0.218813 0.436929 0.323435 
-0.218799 0.410353 0.042731 
-0.218776 0.410310 0.052978 
-0.218774 0.410307 0.061216 
-0.218774 0.405300 0.036248 
-0.218733 0.420532 0.107258 
-0.218729 0.410222 0.092472 
-0.218728 0.448148 0.393124 
-0.218710 0.410185 0.044759 
-0.218696 0.405157 0.038257 
-0.218693 0.448076 0.342675 
-0.218680 0.420431 0.135889 
-0.218671 0.442280 0.314320 
-0.218665 0.410102 0.055007 
-0.218660 0.448009 0.396541 
-0.218646 0.410067 0.063244 
-0.218640 0.436584 0.248786 
-0.218638 0.410052 0.088225 
-0.218626 0.447940 0.317543 
-0.218624 0.442184 0.332719 
-0.218621 0.447930 0.339371 
-0.218589 0.420256 0.163109 
-0.218587 0.447859 0.362075 
-0.218584 0.447854 0.375532 
-0.218579 0.442095 0.256732 
-0.218566 0.453688 0.407799 
-0.218566 0.447816 0.358729 
-0.218561 0.447808 0.378913 
-0.218553 0.420186 0.153890 
-0.218551 0.436407 0.326119 
-0.218550 0.409886 0.057034 
-0.218547 0.399974 0.013925 
-0.218535 0.436375 0.270523 
-0.218529 0.409847 0.083989 
-0.218516 0.399917 0.015914 
-0.218515 0.409820 0.065272 
-0.218498 0.409788 0.038588 
-0.218460 0.420007 0.122435 
-0.218441 0.399780 0.019890 
-0.218435 0.441802 0.290311 
-0.218434 0.441800 0.317010 
-0.218424 0.441781 0.338710 
-0.218402 0.409609 0.079763 
-0.218397 0.399700 0.021878 
-0.218385 0.447446 0.320256 
-0.218379 0.409564 0.067297 
-0.218376 0.436057 0.287266 
-0.218373 0.404558 0.034163 
-0.218360 0.441650 0.237641 
-0.218359 0.419814 0.167571 
-0.218350 0.399612 0.023865 
-0.218331 0.409475 0.042639 
-0.218309 0.441547 0.413312 
-0.218300 0.404423 0.036169 
-0.218298 0.399517 0.025851 
-0.218293 0.419686 0.111391 
-0.218284 0.419669 0.149150 
-0.218250 0.441429 0.348018 
-0.218245 0.447160 0.364837 
-0.218241 0.419586 0.155955 
-0.218241 0.435788 0.248332 
-0.218239 0.419582 0.087655 
-0.218236 0.409298 0.081788 
-0.218223 0.404280 0.038174 
-0.218214 0.441356 0.304677 
-0.218211 0.419529 0.124500 
-0.218208 0.419523 0.098358 
-0.218198 0.435701 0.289903 
-0.218195 0.441317 0.344719 
-0.218186 0.441300 0.256270 
-0.218186 0.447038 0.413716 
-0.218182 0.447031 0.381693 
-0.218180 0.409193 0.063110 
-0.218143 0.419399 0.094033 
-0.218138 0.452798 0.396219 
-0.218131 0.441188 0.341427 
-0.218128 0.452778 0.410625 
-0.218081 0.441086 0.258881 
-0.218061 0.441046 0.316469 
-0.218060 0.419239 0.089718 
-0.218054 0.441032 0.325642 
-0.218046 0.441015 0.301481 
-0.218035 0.446728 0.344847 
-0.218020 0.419161 0.169634 
-0.218017 0.435341 0.219323 
-0.218013 0.435332 0.292541 
-0.217996 0.435299 0.199169 
-0.217982 0.419088 0.151212 
-0.217978 0.440879 0.334868 
-0.217960 0.452429 0.385345 
-0.217925 0.418979 0.158017 
-0.217924 0.435155 0.245303 
-0.217878 0.418888 0.091779 
-0.217871 0.440663 0.292459 
-0.217842 0.408558 0.030346 
-0.217833 0.418802 0.106817 
-0.217822 0.446292 0.354228 
-0.217819 0.440556 0.319158 
-0.217814 0.446276 0.334956 
-0.217792 0.434890 0.234600 
-0.217778 0.408438 0.032366 
-0.217772 0.452038 0.421025 
-0.217770 0.446186 0.322426 
-0.217767 0.440452 0.340857 
-0.217764 0.408413 0.012119 
-0.217754 0.434815 0.250457 
-0.217732 0.446108 0.347587 
-0.217725 0.451942 0.399031 
-0.217689 0.440293 0.258416 
-0.217684 0.440283 0.295116 
-0.217675 0.440267 0.247554 
-0.217675 0.418499 0.153272 
-0.217668 0.440251 0.300959 
-0.217623 0.440160 0.306823 
-0.217616 0.434541 0.263868 
-0.217616 0.418384 0.108876 
-0.217600 0.434508 0.242285 
-0.217587 0.434481 0.221446 
-0.217583 0.408072 0.064993 
-0.217578 0.440070 0.261026 
-0.217570 0.440053 0.321848 
-0.217557 0.418271 0.100213 
-0.217500 0.445633 0.295016 
-0.217490 0.439891 0.297775 
-0.217489 0.407896 0.026248 
-0.217476 0.402895 0.011988 
-0.217465 0.445560 0.353647 
-0.217450 0.445530 0.383859 
-0.217449 0.402845 0.013986 
-0.217447 0.439804 0.318613 
-0.217440 0.434187 0.231615 
-0.217433 0.407791 0.028265 
-0.217432 0.439774 0.241931 
-0.217431 0.457297 0.424882 
-0.217425 0.418018 0.051602 
-0.217422 0.439754 0.327786 
-0.217395 0.417959 0.110933 
-0.217388 0.434085 0.234166 
-0.217388 0.417946 0.115277 
-0.217383 0.402723 0.017980 
-0.217373 0.407678 0.030281 
-0.217365 0.417901 0.155329 
-0.217363 0.417897 0.119630 
-0.217359 0.445344 0.331119 
-0.217359 0.439626 0.244516 
-0.217353 0.417879 0.102269 
-0.217348 0.451160 0.412814 
-0.217343 0.402650 0.019977 
-0.217331 0.433971 0.236720 
-0.217323 0.439553 0.274605 
-0.217309 0.439526 0.228636 
-0.217308 0.407557 0.032297 
-0.217306 0.451071 0.401842 
-0.217304 0.439515 0.294601 
-0.217303 0.451067 0.423856 
-0.217300 0.402569 0.021973 
-0.217262 0.433833 0.252576 
-0.217260 0.417701 0.146195 
-0.217240 0.407429 0.034312 
-0.217240 0.417662 0.139451 
-0.217228 0.450910 0.387533 
-0.217210 0.433729 0.203409 
-0.217209 0.417603 0.055712 
-0.217199 0.439303 0.321299 
-0.217195 0.439294 0.249694 
-0.217187 0.439278 0.260556 
-0.217169 0.417525 0.112987 
-0.217164 0.407286 0.071041 
-0.217154 0.439211 0.330482 
-0.217154 0.417496 0.117332 
-0.217152 0.433613 0.223564 
-0.217151 0.444917 0.324589 
-0.217138 0.433585 0.195919 
-0.217115 0.450676 0.394362 
-0.217111 0.417415 0.143846 
-0.217111 0.402219 0.041999 
-0.217105 0.417403 0.100005 
-0.217099 0.433507 0.265986 
-0.217077 0.439055 0.271493 
-0.217071 0.439045 0.263165 
-0.217065 0.444741 0.349749 
-0.217051 0.417299 0.085056 
-0.217043 0.397222 0.017784 
-0.217020 0.402052 0.031948 
-0.217016 0.407009 0.073054 
-0.217010 0.406998 0.040352 
-0.217004 0.397150 0.019759 
-0.216985 0.433280 0.233731 
-0.216964 0.417131 0.148248 
-0.216962 0.438824 0.244070 
-0.216957 0.417118 0.141504 
-0.216944 0.417093 0.074462 
-0.216940 0.417084 0.115040 
-0.216933 0.444472 0.297176 
-0.216929 0.433167 0.236282 
-0.216915 0.417037 0.119384 
-0.216910 0.444423 0.318092 
-0.216904 0.456189 0.420111 
-0.216902 0.417012 0.102057 
-0.216894 0.462247 0.432256 
-0.216885 0.444373 0.339843 
-0.216885 0.450197 0.386921 
-0.216879 0.438656 0.333180 
-0.216867 0.433043 0.238836 
-0.216865 0.438628 0.230773 
-0.216864 0.406724 0.075066 
-0.216834 0.450092 0.390329 
-0.216831 0.401701 0.047978 
-0.216810 0.432931 0.205524 
-0.216792 0.416801 0.076513 
-0.216790 0.438475 0.276742 
-0.216786 0.416788 0.093448 
-0.216786 0.444169 0.355807 
-0.216784 0.444166 0.324041 
-0.216784 0.449988 0.408094 
-0.216778 0.401602 0.023917 
-0.216772 0.432854 0.220616 
-0.216743 0.406497 0.046386 
-0.216738 0.444070 0.299850 
-0.216737 0.461913 0.435779 
-0.216732 0.438358 0.296738 
-0.216726 0.401507 0.025908 
-0.216723 0.444041 0.333278 
-0.216710 0.438313 0.251830 
-0.216708 0.406431 0.077077 
-0.216707 0.444007 0.349172 
-0.216706 0.449826 0.397164 
-0.216706 0.416635 0.117090 
-0.216694 0.416613 0.104107 
-0.216681 0.438255 0.262692 
-0.216673 0.416571 0.121434 
-0.216670 0.401403 0.027899 
-0.216670 0.416566 0.143554 
-0.216667 0.443925 0.320792 
-0.216654 0.443900 0.345866 
-0.216645 0.449700 0.362663 
-0.216636 0.416501 0.078562 
-0.216636 0.416501 0.072258 
-0.216633 0.416494 0.136836 
-0.216631 0.432573 0.230754 
-0.216610 0.401292 0.029889 
-0.216610 0.416449 0.049337 
-0.216601 0.406230 0.024126 
-0.216596 0.416423 0.095497 
-0.216577 0.455502 0.408428 
-0.216577 0.432465 0.268099 
-0.216565 0.449533 0.414995 
-0.216560 0.438011 0.265300 
-0.216549 0.437989 0.273628 
-0.216549 0.406133 0.026135 
-0.216537 0.432385 0.171242 
-0.216528 0.443640 0.326746 
-0.216519 0.416276 0.059692 
-0.216516 0.406071 0.066724 
-0.216508 0.416255 0.051385 
-0.216499 0.401086 0.013925 
-0.216494 0.406029 0.028143 
-0.216492 0.449382 0.389713 
-0.216488 0.416217 0.074306 
-0.216483 0.416206 0.106155 
-0.216476 0.416193 0.080610 
-0.216465 0.432241 0.238393 
-0.216451 0.416145 0.101845 
-0.216446 0.443473 0.335994 
-0.216434 0.437755 0.267910 
-0.216419 0.455169 0.400898 
-0.216417 0.437721 0.232906 
-0.216407 0.432125 0.207635 
-0.216404 0.437695 0.276249 
-0.216403 0.416052 0.053431 
-0.216401 0.416049 0.097544 
-0.216398 0.432108 0.205133 
-0.216398 0.432107 0.240946 
-0.216384 0.432079 0.202636 
-0.216377 0.405811 0.068731 
-0.216364 0.432040 0.200143 
-0.216355 0.415960 0.138883 
-0.216355 0.432022 0.178250 
-0.216351 0.400811 0.021878 
-0.216337 0.415925 0.076352 
-0.216336 0.454994 0.404346 
-0.216316 0.437516 0.251372 
-0.216311 0.415877 0.082656 
-0.216305 0.437494 0.238035 
-0.216303 0.400724 0.023865 
-0.216302 0.405669 0.034163 
-0.216267 0.415791 0.108201 
-0.216264 0.443100 0.311097 
-0.216252 0.437388 0.278873 
-0.216252 0.400628 0.025851 
-0.216244 0.415747 0.103891 
-0.216238 0.448855 0.382301 
-0.216233 0.443036 0.341997 
-0.216229 0.405534 0.036169 
-0.216200 0.431713 0.173351 
-0.216196 0.400525 0.027838 
-0.216181 0.431674 0.187742 
-0.216181 0.415626 0.078397 
-0.216171 0.437223 0.264823 
-0.216162 0.442890 0.302004 
-0.216153 0.405391 0.038174 
-0.216151 0.395588 0.013772 
-0.216143 0.415553 0.095297 
-0.216143 0.415553 0.084701 
-0.216143 0.454587 0.411258 
-0.216140 0.437160 0.224820 
-0.216136 0.400414 0.029823 
-0.216136 0.442839 0.284500 
-0.216120 0.395532 0.015739 
-0.216109 0.473096 0.444221 
-0.216092 0.437065 0.245753 
-0.216085 0.395468 0.017706 
-0.216076 0.400302 0.043801 
-0.216073 0.415419 0.140928 
-0.216055 0.415382 0.040963 
-0.216033 0.415341 0.105934 
-0.216024 0.431361 0.168471 
-0.216021 0.415318 0.080440 
-0.216021 0.415318 0.118892 
-0.216013 0.436904 0.259148 
-0.216009 0.448379 0.410270 
-0.215997 0.431307 0.240500 
-0.215995 0.431303 0.207240 
-0.215994 0.400149 0.015879 
-0.215992 0.442543 0.292970 
-0.215989 0.431291 0.214756 
-0.215983 0.400130 0.045785 
-0.215977 0.454240 0.425795 
-0.215970 0.415221 0.086744 
-0.215961 0.448280 0.368194 
-0.215957 0.448272 0.371559 
-0.215956 0.448270 0.364837 
-0.215952 0.448261 0.399338 
-0.215927 0.442410 0.256270 
-0.215925 0.431163 0.243053 
-0.215921 0.448196 0.358144 
-0.215919 0.400012 0.019846 
-0.215914 0.436703 0.270039 
-0.215900 0.436675 0.261745 
-0.215881 0.415049 0.045047 
-0.215868 0.448087 0.402764 
-0.215868 0.436610 0.278377 
-0.215860 0.431032 0.175456 
-0.215857 0.415003 0.082482 
-0.215855 0.431023 0.192319 
-0.215842 0.436558 0.240162 
-0.215828 0.436529 0.253500 
-0.215817 0.414926 0.107976 
-0.215812 0.430937 0.189847 
-0.215810 0.453888 0.410625 
-0.215807 0.436487 0.204183 
-0.215794 0.414881 0.088785 
-0.215788 0.414871 0.047088 
-0.215781 0.436435 0.264346 
-0.215764 0.430841 0.187380 
-0.215751 0.414800 0.099381 
-0.215727 0.436327 0.256088 
-0.215721 0.414742 0.057400 
-0.215711 0.436293 0.281000 
-0.215693 0.430699 0.170575 
-0.215689 0.414680 0.084523 
-0.215615 0.436099 0.247878 
-0.215611 0.447553 0.338245 
-0.215601 0.430517 0.168142 
-0.215598 0.414505 0.110016 
-0.215590 0.441719 0.286647 
-0.215588 0.430491 0.209343 
-0.215587 0.430488 0.211844 
-0.215584 0.430482 0.206845 
-0.215582 0.441702 0.304151 
-0.215578 0.447485 0.377703 
-0.215563 0.447455 0.413077 
-0.215517 0.414349 0.086561 
-0.215504 0.430323 0.165714 
-0.215482 0.414281 0.061477 
-0.215477 0.414272 0.006112 
-0.215445 0.399133 0.019803 
-0.215444 0.447207 0.416525 
-0.215439 0.430193 0.191948 
-0.215434 0.441400 0.258416 
-0.215426 0.414174 0.076031 
-0.215417 0.441365 0.289296 
-0.215410 0.435684 0.206306 
-0.215402 0.399053 0.021781 
-0.215395 0.430106 0.189481 
-0.215391 0.435645 0.179288 
-0.215380 0.435623 0.286251 
-0.215376 0.435615 0.242285 
-0.215370 0.452962 0.413450 
-0.215369 0.441267 0.306823 
-0.215362 0.435588 0.221446 
-0.215358 0.430030 0.172675 
-0.215356 0.414040 0.063514 
-0.215340 0.414009 0.088598 
-0.215329 0.435521 0.196293 
-0.215327 0.435517 0.280500 
-0.215319 0.446947 0.310002 
-0.215301 0.435464 0.244853 
-0.215292 0.429898 0.184559 
-0.215271 0.413876 0.078067 
-0.215268 0.435397 0.266467 
-0.215263 0.446831 0.367005 
-0.215251 0.446807 0.373726 
-0.215240 0.446784 0.360312 
-0.215238 0.403675 0.021973 
-0.215235 0.413807 0.084345 
-0.215226 0.413790 0.065550 
-0.215220 0.435300 0.247424 
-0.215210 0.440940 0.263639 
-0.215178 0.429671 0.208944 
-0.215177 0.429670 0.211442 
-0.215171 0.429658 0.213943 
-0.215166 0.435190 0.283121 
-0.215160 0.413663 0.090634 
-0.215159 0.429634 0.216448 
-0.215138 0.435135 0.269069 
-0.215134 0.435125 0.249999 
-0.215128 0.452454 0.420382 
-0.215119 0.429553 0.221471 
-0.215112 0.413569 0.080102 
-0.215093 0.446478 0.347013 
-0.215092 0.413532 0.067585 
-0.215063 0.413476 0.086379 
-0.215039 0.452265 0.412814 
-0.215027 0.413407 0.053092 
-0.215009 0.398326 0.017784 
-0.215009 0.434873 0.208424 
-0.214978 0.429272 0.162969 
-0.214975 0.413308 0.092667 
-0.214971 0.434797 0.200908 
-0.214963 0.413283 0.044855 
-0.214960 0.413279 0.012198 
-0.214954 0.413266 0.069618 
-0.214947 0.434749 0.198411 
-0.214940 0.429195 0.153651 
-0.214914 0.446106 0.369764 
-0.214895 0.457989 0.420750 
-0.214887 0.413138 0.088412 
-0.214870 0.413106 0.046887 
-0.214824 0.434500 0.288369 
-0.214812 0.412993 0.071650 
-0.214783 0.434416 0.282617 
-0.214768 0.402794 0.021925 
-0.214767 0.434383 0.233731 
-0.214764 0.457709 0.424239 
-0.214762 0.428841 0.213536 
-0.214730 0.445724 0.312164 
-0.214718 0.445700 0.330564 
-0.214711 0.434271 0.236282 
-0.214709 0.428735 0.198612 
-0.214707 0.412792 0.090443 
-0.214703 0.439902 0.265777 
-0.214694 0.451541 0.373354 
-0.214689 0.434226 0.183522 
-0.214688 0.412756 0.026418 
-0.214688 0.412755 0.059187 
-0.214684 0.428685 0.223565 
-0.214681 0.428679 0.196139 
-0.214679 0.451508 0.376735 
-0.214654 0.451457 0.380124 
-0.214647 0.428611 0.193671 
-0.214637 0.428592 0.155744 
-0.214633 0.412649 0.028448 
-0.214627 0.434100 0.181057 
-0.214621 0.451388 0.383519 
-0.214616 0.434079 0.285236 
-0.214616 0.434078 0.271184 
-0.214604 0.434054 0.210539 
-0.214594 0.412575 0.096729 
-0.214591 0.412569 0.042731 
-0.214575 0.451291 0.404652 
-0.214574 0.412535 0.030477 
-0.214569 0.397511 0.015774 
-0.214567 0.412522 0.061216 
-0.214562 0.433969 0.200526 
-0.214558 0.445368 0.372523 
-0.214556 0.445364 0.362472 
-0.214555 0.439598 0.249240 
-0.214554 0.428425 0.162648 
-0.214515 0.428347 0.171999 
-0.214512 0.445272 0.355807 
-0.214510 0.412413 0.032506 
-0.214471 0.451071 0.393743 
-0.214463 0.439410 0.302573 
-0.214445 0.428208 0.160238 
-0.214433 0.445109 0.349172 
-0.214417 0.433675 0.230754 
-0.214394 0.428106 0.181396 
-0.214394 0.439269 0.279369 
-0.214382 0.445002 0.345866 
-0.214367 0.433576 0.233297 
-0.214362 0.456852 0.415994 
-0.214356 0.450830 0.369384 
-0.214343 0.428004 0.215627 
-0.214341 0.401993 0.019890 
-0.214339 0.450793 0.422564 
-0.214332 0.433504 0.185634 
-0.214331 0.427980 0.157834 
-0.214327 0.427972 0.218128 
-0.214327 0.427972 0.178955 
-0.214321 0.444876 0.342567 
-0.214315 0.412038 0.048814 
-0.214313 0.433465 0.235843 
-0.214302 0.439080 0.293571 
-0.214281 0.450671 0.382910 
-0.214267 0.427851 0.195761 
-0.214245 0.427808 0.225654 
-0.214234 0.427787 0.164737 
-0.214195 0.433226 0.212650 
-0.214193 0.438856 0.267910 
-0.214186 0.433209 0.215163 
-0.214176 0.427671 0.174088 
-0.214147 0.450391 0.407461 
-0.214144 0.456388 0.411890 
-0.214136 0.444493 0.314320 
-0.214133 0.450362 0.393124 
-0.214123 0.444466 0.351905 
-0.214094 0.427507 0.185930 
-0.214094 0.444404 0.273432 
-0.214090 0.444397 0.332719 
-0.214089 0.433014 0.273295 
-0.214076 0.438617 0.251372 
-0.214074 0.438614 0.284632 
-0.214061 0.438587 0.270523 
-0.214059 0.432952 0.227787 
-0.214045 0.450175 0.410906 
-0.214041 0.411512 0.069322 
-0.214037 0.427394 0.183484 
-0.214013 0.438488 0.278873 
-0.213996 0.444202 0.329452 
-0.213975 0.427270 0.181042 
-0.213971 0.450019 0.378913 
-0.213967 0.450012 0.270549 
-0.213956 0.427232 0.150653 
-0.213952 0.411340 0.046687 
-0.213933 0.449940 0.414355 
-0.213925 0.427169 0.202789 
-0.213924 0.438306 0.273139 
-0.213910 0.427140 0.166823 
-0.213901 0.449872 0.385696 
-0.213899 0.411239 0.071345 
-0.213895 0.443991 0.338710 
-0.213894 0.443991 0.326194 
-0.213889 0.411219 0.056912 
-0.213882 0.411206 0.094300 
-0.213882 0.427083 0.197847 
-0.213882 0.438219 0.256553 
-0.213882 0.438219 0.304703 
-0.213871 0.401111 0.019846 
-0.213855 0.411154 0.065132 
-0.213855 0.438164 0.245753 
-0.213834 0.426988 0.176173 
-0.213817 0.443829 0.335431 
-0.213817 0.426953 0.192922 
-0.213808 0.449677 0.345417 
-0.213791 0.432410 0.209742 
-0.213787 0.432402 0.207240 
-0.213781 0.438014 0.275757 
-0.213776 0.438003 0.259148 
-0.213773 0.410995 0.058934 
-0.213770 0.443732 0.351325 
-0.213768 0.432363 0.217270 
-0.213756 0.410963 0.050731 
-0.213749 0.432325 0.219787 
-0.213741 0.467913 0.435487 
-0.213731 0.449515 0.395918 
-0.213722 0.410898 0.067154 
-0.213678 0.437801 0.270039 
-0.213675 0.455388 0.403720 
-0.213664 0.437774 0.261745 
-0.213658 0.432142 0.227361 
-0.213657 0.449359 0.399338 
-0.213652 0.410763 0.052752 
-0.213628 0.443438 0.310563 
-0.213619 0.426559 0.183126 
-0.213585 0.410634 0.069174 
-0.213582 0.426485 0.168906 
-0.213574 0.443325 0.275582 
-0.213561 0.449158 0.385084 
-0.213558 0.431938 0.187380 
-0.213545 0.449124 0.424738 
-0.213543 0.410555 0.054772 
-0.213542 0.437522 0.272650 
-0.213539 0.443253 0.316469 
-0.213528 0.437493 0.286759 
-0.213505 0.400424 0.013864 
-0.213493 0.426307 0.199929 
-0.213488 0.426297 0.178255 
-0.213478 0.443127 0.307353 
-0.213477 0.437391 0.281000 
-0.213474 0.400367 0.015844 
-0.213458 0.448941 0.272720 
-0.213456 0.448936 0.287000 
-0.213444 0.410363 0.071193 
-0.213440 0.400302 0.017823 
-0.213431 0.410339 0.056791 
-0.213424 0.467218 0.434840 
-0.213400 0.437231 0.275264 
-0.213397 0.410273 0.048605 
-0.213379 0.454756 0.414086 
-0.213370 0.442903 0.331601 
-0.213360 0.426040 0.190096 
-0.213354 0.431527 0.201863 
-0.213322 0.431461 0.221889 
-0.213320 0.442799 0.304151 
-0.213319 0.448649 0.338245 
-0.213315 0.448640 0.364246 
-0.213315 0.410115 0.058808 
-0.213297 0.410081 0.050623 
-0.213296 0.437020 0.306828 
-0.213293 0.431402 0.224410 
-0.213277 0.442709 0.255808 
-0.213276 0.442706 0.280858 
-0.213273 0.448551 0.413077 
-0.213237 0.431289 0.191948 
-0.213222 0.448444 0.384472 
-0.213217 0.431248 0.229462 
-0.213213 0.409919 0.042456 
-0.213194 0.409884 0.060825 
-0.213194 0.431201 0.189481 
-0.213179 0.442507 0.337577 
-0.213176 0.448348 0.387866 
-0.213176 0.394929 0.013711 
-0.213161 0.436743 0.263868 
-0.213159 0.448311 0.347587 
-0.213155 0.448303 0.416525 
-0.213145 0.394873 0.015669 
-0.213138 0.425597 0.180334 
-0.213137 0.454242 0.421025 
-0.213125 0.409751 0.044472 
-0.213111 0.394809 0.017627 
-0.213085 0.409674 0.054654 
-0.213070 0.409644 0.062840 
-0.213058 0.442255 0.321848 
-0.213050 0.442237 0.277726 
-0.213049 0.425421 0.125264 
-0.213038 0.442213 0.312708 
-0.213001 0.436416 0.258209 
-0.212988 0.436388 0.231615 
-0.212977 0.430764 0.211442 
-0.212973 0.409458 0.056669 
-0.212972 0.430752 0.213943 
-0.212966 0.425254 0.147677 
-0.212962 0.430733 0.203961 
-0.212960 0.430729 0.216448 
-0.212953 0.447879 0.360312 
-0.212950 0.466180 0.437727 
-0.212945 0.447862 0.274887 
-0.212941 0.409397 0.064854 
-0.212938 0.442005 0.318613 
-0.212937 0.466153 0.430024 
-0.212925 0.453789 0.405911 
-0.212920 0.430647 0.221471 
-0.212918 0.447805 0.380475 
-0.212916 0.447801 0.289166 
-0.212896 0.430600 0.196518 
-0.212896 0.425114 0.187282 
-0.212883 0.447732 0.334397 
-0.212864 0.430534 0.194046 
-0.212859 0.425040 0.122936 
-0.212856 0.447675 0.350326 
-0.212838 0.447636 0.387250 
-0.212825 0.430456 0.191578 
-0.212816 0.441753 0.274605 
-0.212809 0.409142 0.066867 
-0.212803 0.424928 0.127338 
-0.212790 0.441699 0.257950 
-0.212784 0.441686 0.300436 
-0.212781 0.430367 0.189114 
-0.212747 0.424816 0.158969 
-0.212742 0.441597 0.283000 
-0.212739 0.430281 0.172337 
-0.212723 0.453358 0.373952 
-0.212707 0.435813 0.308947 
-0.212701 0.424726 0.111849 
-0.212684 0.447312 0.340409 
-0.212683 0.441476 0.260556 
-0.212666 0.447276 0.309472 
-0.212663 0.424649 0.120615 
-0.212654 0.435704 0.265986 
-0.212630 0.447200 0.366410 
-0.212613 0.408765 0.062705 
-0.212603 0.447144 0.376492 
-0.212602 0.441307 0.252288 
-0.212595 0.453085 0.405281 
-0.212582 0.441266 0.303099 
-0.212579 0.441259 0.285639 
-0.212575 0.441252 0.271493 
-0.212565 0.429931 0.206056 
-0.212552 0.424427 0.129411 
-0.212547 0.447025 0.353067 
-0.212539 0.429878 0.218543 
-0.212534 0.441167 0.241489 
-0.212531 0.408608 0.036248 
-0.212522 0.441141 0.279866 
-0.212500 0.452882 0.408727 
-0.212499 0.446925 0.386635 
-0.212489 0.429777 0.223565 
-0.212480 0.429758 0.176865 
-0.212456 0.408464 0.038257 
-0.212451 0.440994 0.265777 
-0.212434 0.424192 0.161041 
-0.212428 0.446775 0.277048 
-0.212410 0.440908 0.288281 
-0.212403 0.429603 0.174430 
-0.212350 0.452564 0.401216 
-0.212330 0.408222 0.028143 
-0.212326 0.440735 0.268391 
-0.212322 0.423968 0.158652 
-0.212319 0.429432 0.186293 
-0.212300 0.440681 0.260087 
-0.212297 0.423918 0.131481 
-0.212271 0.408109 0.030150 
-0.212258 0.446418 0.359136 
-0.212255 0.446410 0.336557 
-0.212234 0.429262 0.169573 
-0.212232 0.446363 0.355807 
-0.212229 0.423782 0.120369 
-0.212208 0.407988 0.032157 
-0.212205 0.423734 0.156268 
-0.212188 0.440448 0.262692 
-0.212183 0.423692 0.124754 
-0.212171 0.446234 0.333278 
-0.212166 0.429123 0.210636 
-0.212142 0.429074 0.167153 
-0.212142 0.407860 0.034163 
-0.212136 0.429062 0.178955 
-0.212120 0.423565 0.129148 
-0.212117 0.423559 0.163109 
-0.212103 0.446092 0.345866 
-0.212093 0.434555 0.235843 
-0.212085 0.446052 0.311630 
-0.212082 0.423489 0.153890 
-0.212075 0.440213 0.243624 
-0.212071 0.407724 0.036169 
-0.212063 0.407709 0.020064 
-0.212036 0.440132 0.287774 
-0.212028 0.451877 0.376134 
-0.212021 0.407627 0.022069 
-0.211996 0.407580 0.038174 
-0.211990 0.440037 0.282000 
-0.211987 0.445848 0.302526 
-0.211974 0.407538 0.024074 
-0.211968 0.423261 0.144724 
-0.211956 0.451724 0.414995 
-0.211954 0.434270 0.202636 
-0.211946 0.439945 0.267910 
-0.211942 0.445752 0.368567 
-0.211938 0.423201 0.126821 
-0.211935 0.445738 0.371921 
-0.211930 0.445727 0.361881 
-0.211917 0.407428 0.040178 
-0.211904 0.428594 0.171661 
-0.211884 0.445630 0.355223 
-0.211869 0.407336 0.028082 
-0.211862 0.439771 0.290414 
-0.211848 0.445555 0.351905 
-0.211846 0.439738 0.316979 
-0.211829 0.439703 0.284632 
-0.211820 0.422965 0.142369 
-0.211811 0.407224 0.030085 
-0.211805 0.439654 0.262219 
-0.211774 0.433901 0.173351 
-0.211773 0.445397 0.388790 
-0.211762 0.451310 0.396541 
-0.211757 0.428296 0.212723 
-0.211753 0.433857 0.232862 
-0.211748 0.407103 0.032087 
-0.211747 0.407102 0.044184 
-0.211720 0.428220 0.200316 
-0.211691 0.451159 0.362075 
-0.211691 0.445225 0.341997 
-0.211688 0.439411 0.264823 
-0.211682 0.406975 0.034089 
-0.211667 0.451107 0.378913 
-0.211667 0.422659 0.140019 
-0.211666 0.428111 0.195382 
-0.211656 0.406927 0.046186 
-0.211656 0.422639 0.153581 
-0.211622 0.445079 0.338710 
-0.211611 0.439252 0.245753 
-0.211593 0.422513 0.117815 
-0.211583 0.433508 0.180356 
-0.211573 0.433490 0.207240 
-0.211570 0.427919 0.173746 
-0.211564 0.433471 0.204743 
-0.211563 0.444956 0.357960 
-0.211559 0.396775 0.017666 
-0.211550 0.450859 0.389097 
-0.211545 0.444917 0.335431 
-0.211536 0.406696 0.038091 
-0.211535 0.444897 0.354639 
-0.211533 0.444893 0.278711 
-0.211528 0.422382 0.151212 
-0.211521 0.463053 0.430964 
-0.211514 0.433368 0.177904 
-0.211514 0.406652 0.024022 
-0.211508 0.422343 0.137675 
-0.211499 0.444820 0.313782 
-0.211463 0.406555 0.026021 
-0.211440 0.433217 0.175456 
-0.211436 0.427646 0.183126 
-0.211434 0.422195 0.130946 
-0.211419 0.444652 0.304677 
-0.211391 0.422109 0.142080 
-0.211390 0.422108 0.081118 
-0.211379 0.444568 0.391561 
-0.211375 0.406385 0.042090 
-0.211373 0.427520 0.180688 
-0.211365 0.450465 0.368194 
-0.211361 0.450455 0.364837 
-0.211346 0.427466 0.150352 
-0.211343 0.427459 0.214806 
-0.211330 0.427432 0.202398 
-0.211317 0.421962 0.124245 
-0.211310 0.438625 0.292541 
-0.211305 0.427382 0.166493 
-0.211300 0.450325 0.381693 
-0.211298 0.427367 0.157208 
-0.211286 0.427343 0.197464 
-0.211262 0.444323 0.289804 
-0.211262 0.450244 0.385084 
-0.211257 0.421842 0.076834 
-0.211250 0.444296 0.364031 
-0.211247 0.432820 0.237509 
-0.211245 0.421818 0.093838 
-0.211244 0.438488 0.319106 
-0.211237 0.421802 0.139735 
-0.211230 0.421787 0.083177 
-0.211176 0.421680 0.133005 
-0.211175 0.432673 0.209343 
-0.211173 0.421673 0.108876 
-0.211144 0.438281 0.247878 
-0.211141 0.405936 0.019977 
-0.211111 0.421551 0.144139 
-0.211105 0.421538 0.078892 
-0.211103 0.443987 0.347441 
-0.211099 0.405855 0.021973 
-0.211097 0.449893 0.395296 
-0.211084 0.432487 0.224410 
-0.211079 0.426926 0.185205 
-0.211078 0.421485 0.137396 
-0.211073 0.421474 0.126303 
-0.211060 0.421448 0.095895 
-0.211054 0.426873 0.152432 
-0.211053 0.443883 0.304151 
-0.211053 0.405766 0.023969 
-0.211049 0.432416 0.226934 
-0.211048 0.443873 0.344145 
-0.211039 0.438063 0.237158 
-0.211024 0.449737 0.367600 
-0.211022 0.426809 0.182767 
-0.211009 0.443790 0.280858 
-0.211009 0.432333 0.229462 
-0.210992 0.426748 0.159287 
-0.210981 0.426727 0.168572 
-0.210972 0.421272 0.176154 
-0.210962 0.421253 0.141792 
-0.210959 0.426681 0.180334 
-0.210951 0.421231 0.115277 
-0.210914 0.421157 0.135062 
-0.210914 0.443591 0.337577 
-0.210909 0.443579 0.315929 
-0.210871 0.421070 0.097951 
-0.210846 0.443447 0.306823 
-0.210827 0.449318 0.391267 
-0.210825 0.431957 0.182105 
-0.210824 0.420977 0.128359 
-0.210808 0.420945 0.139451 
-0.210808 0.449276 0.344277 
-0.210804 0.420937 0.070357 
-0.210794 0.443339 0.321848 
-0.210790 0.431885 0.239608 
-0.210787 0.426334 0.163760 
-0.210772 0.431848 0.211442 
-0.210757 0.426273 0.154508 
-0.210754 0.437471 0.294663 
-0.210739 0.420808 0.112987 
-0.210724 0.420778 0.117332 
-0.210719 0.431739 0.198995 
-0.210717 0.443177 0.291948 
-0.210704 0.437368 0.234166 
-0.210689 0.443118 0.263639 
-0.210681 0.449006 0.370362 
-0.210677 0.420684 0.100005 
-0.210673 0.437303 0.249999 
-0.210660 0.448962 0.360312 
-0.210652 0.431603 0.226508 
-0.210651 0.443038 0.327786 
-0.210627 0.420584 0.066107 
-0.210571 0.420472 0.130412 
-0.210567 0.431429 0.231559 
-0.210565 0.442858 0.366174 
-0.210564 0.437077 0.297301 
-0.210552 0.437052 0.210938 
-0.210548 0.420425 0.091397 
-0.210547 0.442819 0.324538 
-0.210542 0.404784 0.025908 
-0.210540 0.420410 0.148248 
-0.210536 0.442796 0.294601 
-0.210521 0.436988 0.241839 
-0.210517 0.425787 0.116228 
-0.210516 0.420363 0.115040 
-0.210496 0.420322 0.068158 
-0.210480 0.420290 0.102057 
-0.210475 0.436893 0.223564 
-0.210475 0.431238 0.184201 
-0.210468 0.425689 0.165834 
-0.210460 0.431208 0.236624 
-0.210456 0.425665 0.156581 
-0.210446 0.442607 0.268872 
-0.210401 0.442512 0.346286 
-0.210400 0.420131 0.145898 
-0.210370 0.431025 0.208545 
-0.210368 0.425486 0.163435 
-0.210367 0.420065 0.093448 
-0.210353 0.479838 0.447469 
-0.210353 0.389700 0.011596 
-0.210349 0.442403 0.297257 
-0.210336 0.430955 0.201089 
-0.210330 0.430941 0.241702 
-0.210319 0.442340 0.285639 
-0.210315 0.442330 0.318069 
-0.210314 0.448225 0.376492 
-0.210314 0.419959 0.132462 
-0.210294 0.442287 0.327230 
-0.210289 0.419910 0.117090 
-0.210269 0.442233 0.308962 
-0.210263 0.389533 0.017392 
-0.210262 0.425273 0.161041 
-0.210256 0.430790 0.244247 
-0.210222 0.419774 0.072258 
-0.210219 0.404164 0.019890 
-0.210211 0.448006 0.386635 
-0.210197 0.436316 0.252114 
-0.210189 0.442066 0.323986 
-0.210184 0.419699 0.084878 
-0.210177 0.404083 0.021878 
-0.210168 0.442022 0.294086 
-0.210168 0.447912 0.346440 
-0.210157 0.441998 0.299914 
-0.210152 0.436221 0.208030 
-0.210151 0.425048 0.158652 
-0.210150 0.436218 0.213053 
-0.210149 0.441982 0.257484 
-0.210146 0.425036 0.167904 
-0.210131 0.436179 0.203023 
-0.210122 0.430517 0.233651 
-0.210120 0.430512 0.186293 
-0.210091 0.430453 0.249344 
-0.210081 0.403898 0.025851 
-0.210079 0.419489 0.074306 
-0.210067 0.447698 0.303049 
-0.210061 0.436034 0.243953 
-0.210060 0.424864 0.177204 
-0.210059 0.419449 0.119138 
-0.210053 0.419438 0.134511 
-0.210050 0.436010 0.225678 
-0.210044 0.441761 0.260087 
-0.210035 0.441742 0.329923 
-0.210027 0.403794 0.027838 
-0.210016 0.419364 0.086926 
-0.210013 0.435933 0.228214 
-0.210005 0.430277 0.238715 
-0.209994 0.419319 0.097544 
-0.209992 0.447539 0.372523 
-0.209990 0.447535 0.362472 
-0.209984 0.435874 0.190580 
-0.209984 0.435873 0.246516 
-0.209982 0.441631 0.296738 
-0.209969 0.403683 0.029823 
-0.209949 0.430162 0.203180 
-0.209941 0.441543 0.271008 
-0.209939 0.430141 0.218128 
-0.209918 0.447381 0.382635 
-0.209918 0.430098 0.220633 
-0.209914 0.424568 0.153890 
-0.209907 0.403563 0.031808 
-0.209883 0.419098 0.132191 
-0.209870 0.447279 0.349172 
-0.209852 0.388772 0.013498 
-0.209851 0.441356 0.220145 
-0.209844 0.419021 0.088971 
-0.209842 0.424424 0.160719 
-0.209824 0.418980 0.121183 
-0.209822 0.388717 0.015425 
-0.209819 0.424376 0.169972 
-0.209801 0.418935 0.099589 
-0.209801 0.447131 0.311630 
-0.209790 0.441228 0.299391 
-0.209789 0.418910 0.136556 
-0.209786 0.429828 0.246336 
-0.209782 0.441210 0.287774 
-0.209769 0.393417 0.011674 
-0.209745 0.435377 0.215163 
-0.209745 0.435376 0.205133 
-0.209743 0.393368 0.013620 
-0.209731 0.435348 0.217681 
-0.209723 0.441086 0.230347 
-0.209717 0.441073 0.320203 
-0.209713 0.393312 0.015565 
-0.209688 0.441012 0.311096 
-0.209677 0.440989 0.232906 
-0.209656 0.446822 0.308412 
-0.209636 0.418606 0.105934 
-0.209623 0.418579 0.134235 
-0.209621 0.435120 0.192689 
-0.209615 0.440859 0.296219 
-0.209615 0.446734 0.378649 
-0.209605 0.418542 0.101633 
-0.209602 0.446707 0.355223 
-0.209580 0.440785 0.326119 
-0.209579 0.435032 0.230323 
-0.209575 0.418484 0.043005 
-0.209567 0.446632 0.351905 
-0.209564 0.429373 0.212723 
-0.209558 0.429361 0.205266 
-0.209555 0.440732 0.262219 
-0.209530 0.423791 0.162784 
-0.209523 0.446539 0.348595 
-0.209519 0.423769 0.146788 
-0.209503 0.446497 0.305204 
-0.209494 0.429229 0.222719 
-0.209493 0.446474 0.388790 
-0.209489 0.418312 0.045047 
-0.209489 0.418311 0.093058 
-0.209489 0.402759 0.003961 
-0.209488 0.423707 0.172036 
-0.209482 0.434832 0.185276 
-0.209477 0.440569 0.217197 
-0.209474 0.429188 0.195382 
-0.209472 0.446429 0.345292 
-0.209466 0.418265 0.082482 
-0.209464 0.440541 0.313765 
-0.209447 0.423623 0.113454 
-0.209439 0.440488 0.264823 
-0.209437 0.440484 0.222275 
-0.209404 0.418142 0.088785 
-0.209404 0.418142 0.103674 
-0.209399 0.418132 0.047088 
-0.209399 0.402587 0.013864 
-0.209395 0.423519 0.122185 
-0.209377 0.423482 0.144431 
-0.209369 0.402529 0.015844 
-0.209358 0.434573 0.209742 
-0.209335 0.434527 0.217270 
-0.209317 0.434488 0.219787 
-0.209305 0.417944 0.095098 
-0.209303 0.417939 0.084523 
-0.209297 0.428826 0.171323 
-0.209272 0.423271 0.130946 
-0.209259 0.417852 0.147345 
-0.209255 0.402311 0.021781 
-0.209254 0.434359 0.194795 
-0.209241 0.440072 0.289903 
-0.209239 0.440067 0.235035 
-0.209233 0.423191 0.148849 
-0.209232 0.423190 0.111162 
-0.209229 0.417792 0.090825 
-0.209228 0.440044 0.301520 
-0.209221 0.445896 0.313782 
-0.209221 0.445895 0.351325 
-0.209211 0.417757 0.114326 
-0.209210 0.428647 0.168906 
-0.209209 0.402222 0.023760 
-0.209200 0.417733 0.105714 
-0.209194 0.423113 0.102481 
-0.209157 0.423037 0.124245 
-0.209155 0.428534 0.214806 
-0.209153 0.423030 0.174096 
-0.209141 0.434123 0.232428 
-0.209136 0.417606 0.086561 
-0.209117 0.417569 0.097137 
-0.209110 0.428442 0.157208 
-0.209106 0.439788 0.253500 
-0.209098 0.428418 0.197464 
-0.209096 0.422914 0.128622 
-0.209096 0.422913 0.146491 
-0.209085 0.439744 0.216790 
-0.209071 0.422863 0.153272 
-0.209025 0.417385 0.082309 
-0.209025 0.439617 0.304173 
-0.209017 0.422754 0.133005 
-0.209003 0.422726 0.160076 
-0.209000 0.422719 0.117574 
-0.208991 0.417317 0.107751 
-0.208969 0.417273 0.149383 
-0.208968 0.428150 0.173404 
-0.208958 0.433745 0.211844 
-0.208953 0.422625 0.144139 
-0.208945 0.428105 0.187648 
-0.208943 0.422605 0.150907 
-0.208941 0.439440 0.266948 
-0.208925 0.417186 0.099173 
-0.208922 0.433669 0.219372 
-0.208916 0.428044 0.161684 
-0.208915 0.422547 0.126303 
-0.208906 0.439368 0.258678 
-0.208900 0.439355 0.247878 
-0.208884 0.433589 0.196897 
-0.208874 0.439301 0.315890 
-0.208872 0.439296 0.289391 
-0.208845 0.422407 0.130679 
-0.208830 0.445062 0.331601 
-0.208816 0.439177 0.250457 
-0.208811 0.445021 0.298294 
-0.208807 0.427822 0.159287 
-0.208796 0.439137 0.237158 
-0.208790 0.422295 0.106596 
-0.208779 0.416893 0.109787 
-0.208770 0.422255 0.119630 
-0.208758 0.422230 0.135062 
-0.208742 0.427688 0.216884 
-0.208732 0.456948 0.361650 
-0.208730 0.416795 0.101208 
-0.208715 0.422143 0.097951 
-0.208699 0.433205 0.234528 
-0.208696 0.438926 0.292026 
-0.208681 0.438895 0.272162 
-0.208677 0.438885 0.218913 
-0.208669 0.422049 0.128359 
-0.208638 0.444652 0.315929 
-0.208634 0.427466 0.175481 
-0.208634 0.444643 0.295116 
-0.208626 0.427451 0.192173 
-0.208614 0.433029 0.182105 
-0.208606 0.416547 0.075870 
-0.208604 0.427406 0.163760 
-0.208601 0.438727 0.309484 
-0.208591 0.421892 0.132734 
-0.208584 0.427365 0.189725 
-0.208582 0.421874 0.108651 
-0.208572 0.400996 0.001972 
-0.208562 0.416460 0.111820 
-0.208550 0.432897 0.179656 
-0.208537 0.421783 0.121684 
-0.208536 0.416408 0.063379 
-0.208530 0.416396 0.103241 
-0.208523 0.421756 0.100005 
-0.208521 0.421751 0.150603 
-0.208509 0.432811 0.198995 
-0.208495 0.421698 0.137116 
-0.208455 0.416247 0.077902 
-0.208453 0.438414 0.306294 
-0.208441 0.427072 0.138515 
-0.208438 0.438384 0.269069 
-0.208434 0.438374 0.249999 
-0.208415 0.416166 0.048919 
-0.208411 0.456244 0.364426 
-0.208406 0.444159 0.318613 
-0.208399 0.438302 0.277385 
-0.208397 0.456213 0.413450 
