# .PCD v.7 - Point Cloud Data file format
VERSION .7
FIELDS x y z
SIZE 4 4 4
TYPE F F F
COUNT 1 1 1
WIDTH 1594
HEIGHT 1
POINTS 1594
DATA ascii
-0.765493 0.028979 0.208846 
-0.765493 0.088063 0.449366 
-0.765486 0.044672 0.241767 
-0.765482 0.140093 0.544897 
-0.765471 0.119955 0.578579 
-0.765462 0.072231 0.338307 
-0.765461 0.080137 0.383730 
-0.765431 0.028976 0.205243 
-0.765408 0.032896 0.216066 
-0.765378 0.028974 0.237826 
-0.765366 0.088048 0.431452 
-0.765360 0.080126 0.326651 
-0.765352 0.028973 0.201644 
-0.765351 0.111930 0.521726 
-0.765350 0.060392 0.279430 
-0.765340 0.119935 0.512749 
-0.765338 0.111928 0.406946 
-0.765335 0.032892 0.208846 
-0.765331 0.119933 0.479380 
-0.765330 0.060390 0.310173 
-0.765328 0.131991 0.548864 
-0.765301 0.084078 0.367225 
-0.765283 0.025053 0.194460 
-0.765263 0.115917 0.536936 
-0.765250 0.044658 0.249067 
-0.765248 0.099951 0.459140 
-0.765241 0.036810 0.219682 
-0.765232 0.080113 0.334550 
-0.765230 0.127948 0.553409 
-0.765230 0.036809 0.216066 
-0.765225 0.099948 0.482226 
-0.765216 0.072208 0.346235 
-0.765216 0.060381 0.302363 
-0.765213 0.080111 0.435302 
-0.765210 0.099946 0.406015 
-0.765204 0.099945 0.491628 
-0.765188 0.127941 0.548287 
-0.765186 0.080108 0.375245 
-0.765163 0.040728 0.256381 
-0.765149 0.127935 0.503790 
-0.765145 0.028966 0.194460 
-0.765141 0.099937 0.472860 
-0.765130 0.099935 0.445499 
-0.765116 0.111895 0.502156 
-0.765106 0.099932 0.515568 
-0.765103 0.099932 0.418945 
-0.765099 0.032882 0.198050 
-0.765086 0.123906 0.557957 
-0.765066 0.044647 0.271384 
-0.765056 0.056434 0.286819 
-0.765050 0.111886 0.189197 
-0.765027 0.111882 0.464564 
-0.765026 0.111882 0.428571 
-0.765019 0.009389 0.180151 
-0.765017 0.080090 0.354604 
-0.765008 0.025044 0.187296 
-0.764989 0.140003 0.591371 
-0.764986 0.036797 0.263709 
-0.764986 0.119879 0.522285 
-0.764983 0.088004 0.458118 
-0.764981 0.131931 0.584963 
-0.764979 0.060363 0.253036 
-0.764970 0.068240 0.350000 
-0.764963 0.115871 0.526784 
-0.764951 0.036796 0.241466 
-0.764933 0.119871 0.483815 
-0.764899 0.119866 0.493240 
-0.764892 0.119864 0.446999 
-0.764891 0.072177 0.354185 
-0.764881 0.087993 0.400797 
-0.764880 0.052490 0.245415 
-0.764860 0.111858 0.487723 
-0.764843 0.119857 0.547133 
-0.764821 0.127880 0.498777 
-0.764820 0.060350 0.306080 
-0.764817 0.060350 0.256699 
-0.764801 0.072169 0.314278 
-0.764796 0.072168 0.322130 
-0.764796 0.044631 0.226927 
-0.764791 0.099891 0.431941 
-0.764782 0.119847 0.572813 
-0.764780 0.111846 0.497155 
-0.764779 0.139964 0.554570 
-0.764765 0.119845 0.517235 
-0.764764 0.139962 0.564860 
-0.764760 0.119844 0.502701 
-0.764760 0.080063 0.391793 
-0.764753 0.052481 0.249067 
-0.764742 0.025035 0.215794 
-0.764738 0.080061 0.350415 
-0.764723 0.087974 0.422308 
-0.764714 0.123846 0.583759 
-0.764712 0.056409 0.279088 
-0.764704 0.052478 0.282777 
-0.764699 0.115831 0.415574 
-0.764699 0.044626 0.234189 
-0.764683 0.080055 0.338307 
-0.764676 0.139946 0.544323 
-0.764666 0.060338 0.298286 
-0.764664 0.099875 0.454246 
-0.764644 0.135903 0.548864 
-0.764641 0.099872 0.436287 
-0.764631 0.139937 0.575192 
-0.764625 0.044622 0.237826 
-0.764623 0.087963 0.426632 
-0.764620 0.103848 0.472860 
-0.764603 0.072150 0.275739 
-0.764596 0.111819 0.506622 
-0.764587 0.056399 0.301996 
-0.764580 0.139928 0.539216 
-0.764575 0.028944 0.212187 
-0.764551 0.052468 0.321356 
-0.764546 0.115808 0.516679 
-0.764534 0.044616 0.241466 
-0.764523 0.091915 0.458118 
-0.764519 0.139917 0.580374 
-0.764518 0.040694 0.248758 
-0.764466 0.028940 0.204984 
-0.764465 0.127820 0.493777 
-0.764459 0.032855 0.219407 
-0.764442 0.127817 0.557957 
-0.764441 0.111797 0.482756 
-0.764438 0.080030 0.346235 
-0.764435 0.060320 0.290518 
-0.764427 0.127814 0.563097 
-0.764427 0.025025 0.197799 
-0.764426 0.044610 0.245110 
-0.764414 0.119789 0.455769 
-0.764413 0.060318 0.279088 
-0.764405 0.060317 0.309799 
-0.764393 0.091899 0.444499 
-0.764383 0.127807 0.568247 
-0.764364 0.111785 0.445999 
-0.764363 0.123789 0.522285 
-0.764356 0.044606 0.267378 
-0.764322 0.099830 0.409848 
-0.764321 0.099830 0.401259 
-0.764313 0.052451 0.297923 
-0.764313 0.115773 0.531288 
-0.764308 0.127794 0.542602 
-0.764306 0.072122 0.325869 
-0.764300 0.044603 0.248758 
-0.764286 0.111774 0.501612 
-0.764276 0.036763 0.223023 
-0.764263 0.091883 0.422308 
-0.764260 0.052448 0.230556 
-0.764226 0.009379 0.183487 
-0.764225 0.060303 0.267708 
-0.764206 0.139860 0.590766 
-0.764184 0.025017 0.190634 
-0.764177 0.060299 0.249067 
-0.764176 0.028929 0.194214 
-0.764170 0.056369 0.256381 
-0.764153 0.099808 0.422789 
-0.764143 0.123753 0.517235 
-0.764141 0.119747 0.460163 
-0.764127 0.060295 0.282777 
-0.764122 0.056365 0.286469 
-0.764120 0.079996 0.370581 
-0.764116 0.079996 0.342065 
-0.764116 0.103779 0.467933 
-0.764114 0.079995 0.354185 
-0.764104 0.099801 0.463018 
-0.764098 0.060293 0.353348 
-0.764097 0.119740 0.415574 
-0.764096 0.119740 0.561921 
-0.764095 0.119740 0.483285 
-0.764095 0.060293 0.294219 
-0.764073 0.127755 0.532421 
-0.764057 0.119734 0.567065 
-0.764051 0.099794 0.427117 
-0.764049 0.099794 0.384176 
-0.764046 0.028924 0.190634 
-0.764037 0.123736 0.536936 
-0.764037 0.025012 0.187058 
-0.764035 0.056359 0.297923 
-0.764018 0.032836 0.194214 
-0.764015 0.091854 0.379483 
-0.764015 0.230908 0.513384 
-0.763982 0.056355 0.230556 
-0.763969 0.139816 0.564273 
-0.763961 0.087887 0.396060 
-0.763948 0.111725 0.496614 
-0.763944 0.230887 0.489058 
-0.763935 0.079977 0.330005 
-0.763927 0.087883 0.417513 
-0.763926 0.099778 0.431452 
-0.763926 0.079976 0.366364 
-0.763920 0.091842 0.466895 
-0.763919 0.139807 0.569430 
-0.763888 0.119707 0.577382 
-0.763867 0.091836 0.375245 
-0.763863 0.103745 0.481696 
-0.763860 0.044577 0.223023 
-0.763833 0.079966 0.350000 
-0.763804 0.052416 0.248758 
-0.763801 0.072074 0.256699 
-0.763800 0.044573 0.230268 
-0.763798 0.072074 0.329610 
-0.763789 0.099760 0.467414 
-0.763788 0.079962 0.387084 
-0.763759 0.119687 0.582556 
-0.763750 0.087862 0.362583 
-0.763740 0.222327 0.599406 
-0.763711 0.111690 0.520608 
-0.763705 0.111689 0.441136 
-0.763705 0.072065 0.349586 
-0.763701 0.083902 0.370581 
-0.763693 0.060261 0.260044 
-0.763693 0.119676 0.511645 
-0.763670 0.091812 0.457607 
-0.763662 0.052407 0.252409 
-0.763645 0.131701 0.573408 
-0.763645 0.131701 0.542602 
-0.763644 0.139757 0.533554 
-0.763629 0.127681 0.562509 
-0.763625 0.111677 0.459140 
-0.763592 0.139747 0.584963 
-0.763588 0.127674 0.567656 
-0.763586 0.087844 0.326260 
-0.763583 0.103707 0.463018 
-0.763577 0.111670 0.401721 
-0.763574 0.111670 0.410318 
-0.763559 0.115659 0.450373 
-0.763557 0.024996 0.201135 
-0.763551 0.079937 0.378599 
-0.763538 0.087838 0.452724 
-0.763536 0.079935 0.310173 
-0.763529 0.079934 0.325869 
-0.763522 0.230759 0.493588 
-0.763507 0.111660 0.445499 
-0.763500 0.127659 0.517235 
-0.763490 0.111658 0.393155 
-0.763471 0.079928 0.357957 
-0.763464 0.222247 0.583030 
-0.763456 0.111653 0.501067 
-0.763455 0.099717 0.405084 
-0.763446 0.099715 0.409379 
-0.763442 0.068104 0.353348 
-0.763429 0.072039 0.317626 
-0.763427 0.040636 0.252096 
-0.763423 0.139716 0.590160 
-0.763415 0.222233 0.621201 
-0.763412 0.119633 0.506622 
-0.763398 0.079921 0.374368 
-0.763398 0.072036 0.279088 
-0.763382 0.091777 0.461988 
-0.763360 0.099704 0.417990 
-0.763358 0.091775 0.387534 
-0.763343 0.052385 0.226643 
-0.763321 0.036717 0.219131 
-0.763313 0.115621 0.454754 
-0.763304 0.119616 0.556204 
-0.763297 0.036716 0.226359 
-0.763295 0.091767 0.426147 
-0.763290 0.083857 0.362156 
-0.763283 0.127623 0.583158 
-0.763272 0.072024 0.333354 
-0.763265 0.099692 0.387984 
-0.763260 0.036714 0.229980 
-0.763260 0.127619 0.531854 
-0.763249 0.052378 0.233897 
-0.763237 0.068086 0.305709 
-0.763232 0.119604 0.492165 
-0.763210 0.079901 0.353767 
-0.763196 0.099683 0.448862 
-0.763192 0.060222 0.282431 
-0.763190 0.139674 0.558542 
-0.763179 0.119596 0.473383 
-0.763169 0.111611 0.431941 
-0.763165 0.036710 0.204725 
-0.763164 0.060219 0.293861 
-0.763152 0.111608 0.477275 
-0.763136 0.087792 0.404153 
-0.763135 0.139664 0.548287 
-0.763134 0.036708 0.237233 
-0.763130 0.115594 0.520608 
-0.763126 0.139662 0.568839 
-0.763123 0.119587 0.516124 
-0.763088 0.099669 0.476223 
-0.763080 0.135625 0.552828 
-0.763053 0.060211 0.271050 
-0.763043 0.115580 0.459140 
-0.763009 0.052362 0.301263 
-0.762974 0.127571 0.507170 
-0.762971 0.056280 0.233897 
-0.762961 0.131583 0.552247 
-0.762958 0.071995 0.313520 
-0.762943 0.139628 0.579177 
-0.762915 0.099646 0.435302 
-0.762902 0.127559 0.521726 
-0.762899 0.115559 0.418945 
-0.762896 0.119552 0.530722 
-0.762890 0.060198 0.286119 
-0.762876 0.115555 0.501067 
-0.762868 0.056273 0.289809 
-0.762862 0.079865 0.337501 
-0.762834 0.139608 0.532987 
-0.762810 0.079859 0.361730 
-0.762807 0.139603 0.584361 
-0.762805 0.060191 0.274726 
-0.762790 0.044514 0.233604 
-0.762765 0.119531 0.496614 
-0.762752 0.131547 0.577980 
-0.762747 0.111549 0.491091 
-0.762746 0.099624 0.439647 
-0.762737 0.091700 0.470770 
-0.762732 0.131543 0.536936 
-0.762727 0.119525 0.525659 
-0.762714 0.052341 0.252096 
-0.762705 0.068038 0.301630 
-0.762700 0.111542 0.409848 
-0.762695 0.111541 0.367656 
-0.762679 0.071969 0.260044 
-0.762673 0.024967 0.204466 
-0.762668 0.127520 0.502156 
-0.762665 0.111537 0.396976 
-0.762624 0.079840 0.345414 
-0.762613 0.087732 0.357957 
-0.762601 0.060175 0.237529 
-0.762584 0.127506 0.536366 
-0.762557 0.091678 0.391339 
-0.762556 0.052331 0.255747 
-0.762556 0.180272 0.606706 
-0.762554 0.056249 0.282085 
-0.762541 0.099597 0.413207 
-0.762529 0.119494 0.520608 
-0.762517 0.103562 0.379483 
-0.762509 0.071953 0.317244 
-0.762495 0.079826 0.333354 
-0.762477 0.119486 0.550505 
-0.762414 0.099581 0.421826 
-0.762401 0.111498 0.509989 
-0.762399 0.119474 0.491628 
-0.762380 0.052318 0.259401 
-0.762380 0.099576 0.387534 
-0.762367 0.087703 0.370147 
-0.762364 0.091655 0.382837 
-0.762353 0.087702 0.353767 
-0.762346 0.036670 0.215252 
-0.762338 0.119464 0.540308 
-0.762333 0.127464 0.497155 
-0.762333 0.139517 0.568247 
-0.762332 0.139517 0.547710 
-0.762328 0.079809 0.369712 
-0.762325 0.119462 0.445499 
-0.762316 0.099568 0.426147 
-0.762307 0.079806 0.353348 
-0.762301 0.119458 0.515568 
-0.762299 0.079806 0.341251 
-0.762298 0.119458 0.418945 
-0.762275 0.119454 0.501067 
-0.762274 0.099562 0.383283 
-0.762266 0.036666 0.208057 
-0.762259 0.139503 0.573408 
-0.762258 0.139503 0.542602 
-0.762242 0.135476 0.567656 
-0.762231 0.135474 0.547133 
-0.762225 0.119446 0.535226 
-0.762224 0.052308 0.237233 
-0.762187 0.052305 0.263058 
-0.762182 0.079793 0.313520 
-0.762181 0.119440 0.581352 
-0.762179 0.071921 0.282431 
-0.762171 0.087681 0.365934 
-0.762169 0.111464 0.467414 
-0.762164 0.087680 0.329610 
-0.762150 0.119435 0.463533 
-0.762149 0.127433 0.506622 
-0.762116 0.230334 0.507210 
-0.762107 0.079785 0.329216 
-0.762107 0.028851 0.190150 
-0.762106 0.123424 0.525659 
-0.762105 0.119428 0.449869 
-0.762086 0.083725 0.373930 
-0.762085 0.115435 0.396976 
-0.762082 0.119424 0.530155 
-0.762050 0.135441 0.536936 
-0.762048 0.021047 0.183020 
-0.762042 0.103498 0.400335 
-0.762005 0.119412 0.486656 
-0.761997 0.099526 0.374807 
-0.761986 0.221817 0.603477 
-0.761981 0.060126 0.255747 
-0.761969 0.127403 0.492165 
-0.761969 0.071901 0.328821 
-0.761965 0.123401 0.506074 
-0.761958 0.028845 0.186583 
-0.761954 0.071900 0.305339 
-0.761952 0.079769 0.337098 
-0.761946 0.056204 0.237233 
-0.761934 0.087653 0.382391 
-0.761930 0.127397 0.571623 
-0.761925 0.044464 0.226075 
-0.761912 0.111427 0.490554 
-0.761910 0.079765 0.361303 
-0.761903 0.115408 0.463018 
-0.761899 0.044462 0.211652 
-0.761879 0.060118 0.297198 
-0.761877 0.071893 0.286119 
-0.761860 0.127385 0.516124 
-0.761835 0.044459 0.233312 
-0.761834 0.127381 0.576784 
-0.761787 0.221759 0.587089 
-0.761765 0.044455 0.236936 
-0.761718 0.079745 0.345003 
-0.761682 0.099485 0.399874 
-0.761672 0.091572 0.390885 
-0.761668 0.079740 0.357112 
-0.761666 0.119359 0.565291 
-0.761654 0.123350 0.501067 
-0.761648 0.087621 0.373930 
-0.761638 0.060099 0.289455 
-0.761612 0.060097 0.263058 
-0.761609 0.155546 0.575192 
-0.761605 0.119349 0.570434 
-0.761603 0.060096 0.278062 
-0.761600 0.056179 0.293144 
-0.761586 0.071865 0.344592 
-0.761585 0.091561 0.386634 
-0.761583 0.079731 0.332955 
-0.761577 0.111378 0.448862 
-0.761576 0.139378 0.552247 
-0.761560 0.060093 0.240865 
-0.761544 0.071861 0.309050 
-0.761533 0.115352 0.504977 
-0.761497 0.135343 0.556789 
-0.761494 0.099460 0.387084 
-0.761477 0.135340 0.551667 
-0.761470 0.119328 0.444999 
-0.761465 0.127319 0.525659 
-0.761456 0.111360 0.523970 
-0.761455 0.060084 0.244500 
-0.761449 0.052255 0.222463 
-0.761441 0.091544 0.429497 
-0.761435 0.052254 0.259079 
-0.761424 0.123313 0.510541 
-0.761407 0.115333 0.440143 
-0.761402 0.060080 0.266719 
-0.761390 0.079711 0.340845 
-0.761367 0.139340 0.577980 
-0.761352 0.036622 0.211385 
-0.761349 0.083644 0.377714 
-0.761347 0.139336 0.536936 
-0.761330 0.071841 0.267049 
-0.761324 0.127295 0.506074 
-0.761314 0.123295 0.496073 
-0.761297 0.111337 0.435302 
-0.761270 0.028819 0.193476 
-0.761267 0.127286 0.520608 
-0.761267 0.079698 0.320969 
-0.761258 0.099430 0.378599 
-0.761247 0.056153 0.296836 
-0.761235 0.139316 0.583158 
-0.761232 0.079694 0.365073 
-0.761224 0.067906 0.297198 
-0.761214 0.115303 0.444499 
-0.761184 0.052236 0.240564 
-0.761177 0.103380 0.408440 
-0.761174 0.060062 0.270383 
-0.761169 0.119281 0.486122 
-0.761137 0.127264 0.571029 
-0.761137 0.028814 0.189908 
-0.761116 0.071821 0.312763 
-0.761104 0.119271 0.495532 
-0.761103 0.071820 0.389523 
-0.761100 0.111308 0.371016 
-0.761085 0.115284 0.422308 
-0.761061 0.230016 0.516317 
-0.761035 0.060051 0.255429 
-0.761023 0.060050 0.285418 
-0.761015 0.111296 0.513902 
-0.761013 0.127243 0.501067 
-0.760997 0.115270 0.509437 
-0.760989 0.119253 0.467414 
-0.760984 0.067885 0.289455 
-0.760980 0.032705 0.189908 
-0.760973 0.131240 0.530722 
-0.760970 0.044408 0.214980 
-0.760967 0.044408 0.225791 
-0.760964 0.127235 0.535226 
-0.760957 0.229984 0.472945 
-0.760945 0.131235 0.511093 
-0.760933 0.044406 0.229403 
-0.760927 0.139260 0.507170 
-0.760924 0.111282 0.413207 
-0.760919 0.091481 0.407501 
-0.760907 0.056128 0.240564 
-0.760900 0.155401 0.569430 
-0.760891 0.119237 0.519489 
-0.760883 0.139251 0.593541 
-0.760872 0.111275 0.417513 
-0.760869 0.103338 0.382837 
-0.760867 0.071798 0.297198 
-0.760861 0.060038 0.259079 
-0.760854 0.091473 0.394687 
-0.760830 0.032699 0.186345 
-0.760817 0.151336 0.574003 
-0.760815 0.079650 0.316861 
-0.760811 0.079650 0.344592 
-0.760808 0.119224 0.440143 
-0.760803 0.099370 0.399412 
-0.760784 0.127205 0.510541 
-0.760782 0.079647 0.324697 
-0.760767 0.060030 0.233312 
-0.760766 0.079645 0.356689 
-0.760760 0.099365 0.395145 
-0.760744 0.119214 0.458118 
-0.760744 0.127198 0.486656 
-0.760728 0.087515 0.332955 
-0.760722 0.111253 0.448358 
-0.760710 0.009336 0.172143 
-0.760698 0.091455 0.386184 
-0.760698 0.135201 0.556204 
-0.760697 0.060025 0.236936 
-0.760696 0.099356 0.390885 
-0.760691 0.135200 0.561334 
-0.760681 0.056111 0.247831 
-0.760677 0.139214 0.572218 
-0.760671 0.079635 0.332556 
-0.760670 0.071779 0.316479 
-0.760667 0.067856 0.281739 
-0.760663 0.131186 0.506074 
-0.760655 0.208828 0.616276 
-0.760650 0.127183 0.525096 
-0.760647 0.079633 0.301263 
-0.760639 0.091448 0.337098 
-0.760638 0.044389 0.197048 
-0.760627 0.071775 0.289455 
-0.760610 0.060018 0.240564 
-0.760592 0.071772 0.278062 
-0.760588 0.135182 0.571623 
-0.760579 0.131172 0.555620 
-0.760579 0.111232 0.430475 
-0.760575 0.131171 0.560746 
-0.760562 0.119186 0.417990 
-0.760542 0.056101 0.251470 
-0.760537 0.079621 0.368843 
-0.760533 0.071766 0.332157 
-0.760505 0.060010 0.244196 
-0.760484 0.111218 0.452724 
-0.760465 0.099326 0.429497 
-0.760450 0.229831 0.467950 
-0.760420 0.028787 0.196798 
-0.760398 0.119160 0.448862 
-0.760386 0.060000 0.281392 
-0.760384 0.060000 0.247831 
-0.760381 0.115177 0.404618 
-0.760365 0.115175 0.400335 
-0.760355 0.091413 0.357112 
-0.760350 0.079602 0.320583 
-0.760321 0.127128 0.481696 
-0.760304 0.103262 0.403687 
-0.760300 0.052176 0.262407 
-0.760292 0.135129 0.530722 
-0.760280 0.079594 0.328426 
-0.760279 0.099302 0.357534 
-0.760277 0.119141 0.523970 
-0.760269 0.111186 0.439151 
-0.760214 0.056077 0.258758 
-0.760186 0.127105 0.500522 
-0.760181 0.159308 0.595976 
-0.760163 0.071731 0.270383 
-0.760144 0.119120 0.466895 
-0.760143 0.111168 0.470770 
-0.760120 0.091385 0.369278 
-0.760111 0.079576 0.360450 
-0.760084 0.083505 0.352511 
-0.760078 0.091380 0.340845 
-0.760074 0.135091 0.468452 
-0.760074 0.040457 0.203949 
-0.760049 0.115127 0.475697 
-0.760039 0.099270 0.369712 
-0.760032 0.123088 0.471815 
-0.760029 0.151179 0.573408 
-0.760027 0.044353 0.221904 
-0.760026 0.044353 0.218304 
-0.760021 0.091373 0.411314 
-0.760020 0.087433 0.377272 
-0.760009 0.044352 0.214709 
-0.760004 0.143111 0.546555 
-0.760002 0.111148 0.417036 
-0.759991 0.059969 0.273712 
-0.759989 0.131070 0.525096 
-0.759986 0.024879 0.182553 
-0.759977 0.044350 0.229115 
-0.759972 0.091367 0.394229 
-0.759961 0.127067 0.509989 
-0.759960 0.087426 0.316861 
-0.759955 0.091365 0.320969 
-0.759953 0.139081 0.566473 
-0.759952 0.009326 0.175461 
-0.759950 0.119090 0.439647 
-0.759944 0.099258 0.407501 
-0.759939 0.111138 0.461473 
-0.759918 0.071708 0.274050 
-0.759917 0.059963 0.258758 
-0.759910 0.127059 0.486122 
-0.759906 0.119083 0.480636 
-0.759898 0.115104 0.466376 
-0.759881 0.091357 0.328821 
-0.759879 0.099250 0.394687 
-0.759867 0.079551 0.324306 
-0.759852 0.056050 0.243891 
-0.759839 0.111124 0.484521 
-0.759835 0.123056 0.529022 
-0.759834 0.127046 0.524533 
-0.759829 0.229643 0.496003 
-0.759819 0.083476 0.385284 
-0.759812 0.099241 0.390431 
-0.759809 0.119068 0.471293 
-0.759796 0.135041 0.571029 
-0.759773 0.044338 0.200371 
-0.759746 0.131028 0.565291 
-0.759731 0.171420 0.603033 
-0.759727 0.059948 0.262407 
-0.759719 0.067772 0.292786 
-0.759714 0.099228 0.424693 
-0.759703 0.083463 0.381052 
-0.759699 0.091335 0.360876 
-0.759696 0.071687 0.289101 
-0.759674 0.127019 0.504977 
-0.759667 0.115069 0.480106 
-0.759622 0.099216 0.361303 
-0.759612 0.099215 0.381945 
-0.759600 0.017093 0.171922 
-0.759592 0.067761 0.251470 
-0.759574 0.111085 0.434317 
-0.759568 0.071675 0.300530 
-0.759560 0.130996 0.515013 
-0.759556 0.059935 0.243891 
-0.759554 0.028754 0.200116 
-0.759525 0.123006 0.466895 
-0.759522 0.119023 0.426147 
-0.759498 0.119019 0.485055 
-0.759491 0.111073 0.374368 
-0.759481 0.134985 0.530155 
-0.759463 0.099195 0.433332 
-0.759451 0.059926 0.281046 
-0.759441 0.059926 0.292428 
-0.759436 0.059925 0.247522 
-0.759436 0.067747 0.285068 
-0.759432 0.079506 0.320196 
-0.759404 0.071659 0.392855 
-0.759403 0.103139 0.411787 
-0.759403 0.134971 0.486656 
-0.759373 0.111055 0.456584 
-0.759369 0.134965 0.477275 
-0.759362 0.071655 0.292786 
-0.759357 0.103133 0.416082 
-0.759338 0.067738 0.273712 
-0.759332 0.079495 0.304598 
-0.759331 0.122974 0.439647 
-0.759320 0.221041 0.590545 
-0.759312 0.151036 0.567656 
-0.759308 0.079492 0.347927 
-0.759300 0.118988 0.466376 
-0.759299 0.059914 0.251157 
-0.759289 0.103124 0.420384 
-0.759288 0.071649 0.319809 
-0.759287 0.122967 0.480636 
-0.759281 0.118985 0.503880 
-0.759278 0.087348 0.336293 
-0.759256 0.115007 0.425662 
-0.759240 0.056005 0.225507 
-0.759223 0.111033 0.442999 
-0.759221 0.079483 0.335890 
-0.759209 0.111032 0.403687 
-0.759206 0.103113 0.386184 
-0.759198 0.138943 0.555620 
-0.759190 0.091273 0.352511 
-0.759180 0.071638 0.304227 
-0.759179 0.009317 0.178776 
-0.759178 0.040410 0.207268 
-0.759143 0.155042 0.578579 
-0.759139 0.126930 0.448862 
-0.759139 0.126930 0.509437 
-0.759137 0.091267 0.398027 
-0.759119 0.099150 0.441999 
-0.759109 0.134919 0.520048 
-0.759098 0.134917 0.560158 
-0.759083 0.071629 0.335487 
-0.759082 0.111013 0.390885 
-0.759080 0.071629 0.255112 
-0.759079 0.071629 0.285068 
-0.759067 0.099143 0.402756 
-0.759067 0.044297 0.218028 
-0.759066 0.118952 0.489479 
-0.759052 0.059895 0.273374 
-0.759046 0.118948 0.457095 
-0.759046 0.028735 0.185869 
-0.759024 0.091254 0.364642 
-0.759016 0.083388 0.320196 
-0.759000 0.036509 0.192983 
-0.758997 0.099134 0.394229 
-0.758996 0.114967 0.434317 
-0.758992 0.083385 0.251783 
-0.758982 0.134896 0.481696 
-0.758972 0.138902 0.501067 
-0.758971 0.044292 0.232435 
-0.758967 0.118936 0.470770 
-0.758961 0.118935 0.498888 
-0.758946 0.099128 0.365073 
-0.758929 0.134887 0.539734 
-0.758929 0.099125 0.389977 
-0.758923 0.079452 0.289101 
-0.758914 0.134884 0.575587 
-0.758908 0.118927 0.404153 
-0.758903 0.067699 0.243891 
-0.758897 0.229362 0.519781 
-0.758894 0.134881 0.472338 
-0.758893 0.044287 0.203690 
-0.758887 0.110984 0.382391 
-0.758864 0.036503 0.189424 
-0.758842 0.017076 0.175236 
-0.758814 0.134866 0.534656 
-0.758801 0.091227 0.360450 
-0.758793 0.059874 0.277036 
-0.758793 0.134863 0.580750 
-0.758789 0.110970 0.517252 
-0.758788 0.142882 0.587134 
-0.758784 0.059874 0.262082 
-0.758765 0.071599 0.288747 
-0.758762 0.118904 0.461473 
-0.758759 0.009312 0.171702 
-0.758745 0.020955 0.175236 
-0.758743 0.138860 0.510541 
-0.758735 0.099100 0.428520 
-0.758718 0.071595 0.262407 
-0.758688 0.220857 0.606325 
-0.758678 0.079426 0.266389 
-0.758673 0.091211 0.376829 
-0.758653 0.154942 0.594150 
-0.758642 0.126847 0.490016 
-0.758642 0.067676 0.269715 
-0.758633 0.138840 0.496073 
-0.758594 0.091202 0.344182 
-0.758579 0.087267 0.320196 
-0.758578 0.059858 0.265730 
-0.758557 0.091197 0.324306 
-0.758552 0.126832 0.471293 
-0.758551 0.110935 0.438159 
-0.758547 0.083336 0.355844 
-0.758540 0.118869 0.429986 
-0.758505 0.134812 0.495532 
-0.758502 0.126823 0.443999 
-0.758495 0.055950 0.254478 
-0.758492 0.067662 0.254795 
-0.758488 0.059850 0.247213 
-0.758456 0.118856 0.452216 
-0.758453 0.142818 0.550505 
-0.758450 0.091184 0.332157 
-0.758441 0.099062 0.437166 
-0.758439 0.142816 0.565882 
-0.758437 0.126812 0.417513 
-0.758433 0.071568 0.292428 
-0.758432 0.099060 0.373053 
-0.758431 0.083323 0.331759 
-0.758398 0.118847 0.434317 
-0.758383 0.126803 0.528456 
-0.758362 0.126800 0.421826 
-0.758354 0.150846 0.577382 
-0.758352 0.126798 0.461988 
-0.758352 0.059840 0.250843 
-0.758333 0.110903 0.403222 
-0.758311 0.110900 0.398950 
-0.758310 0.224959 0.606934 
-0.758309 0.110900 0.411787 
-0.758305 0.138780 0.570434 
-0.758286 0.071554 0.269715 
-0.758285 0.122805 0.443499 
-0.758284 0.091165 0.401825 
-0.758272 0.134770 0.564700 
-0.758257 0.091161 0.397565 
-0.758256 0.071551 0.303856 
-0.758239 0.079381 0.296474 
-0.758235 0.118821 0.438655 
-0.758226 0.241912 0.231977 
-0.758199 0.059828 0.254478 
-0.758194 0.110883 0.420384 
-0.758193 0.099029 0.406562 
-0.758174 0.099027 0.410841 
-0.758159 0.142763 0.581352 
-0.758147 0.138751 0.500522 
-0.758147 0.071541 0.284718 
-0.758145 0.122782 0.461473 
-0.758141 0.067631 0.277036 
-0.758136 0.055924 0.236046 
-0.758114 0.138745 0.534656 
-0.758112 0.110871 0.386184 
-0.758083 0.071535 0.296111 
-0.758075 0.028698 0.185632 
-0.758071 0.017058 0.178546 
-0.758065 0.044239 0.228539 
-0.758061 0.134733 0.514457 
-0.758052 0.110862 0.337098 
-0.758043 0.024816 0.182087 
-0.758023 0.142738 0.510541 
-0.758011 0.118786 0.527323 
-0.758006 0.134723 0.580148 
-0.758004 0.059812 0.221624 
-0.758003 0.009303 0.175011 
-0.758003 0.079356 0.307926 
-0.757997 0.114816 0.488404 
-0.757993 0.122757 0.475170 
-0.757992 0.083275 0.304227 
-0.757988 0.059811 0.225223 
-0.757974 0.020934 0.178546 
-0.757965 0.071524 0.258437 
-0.757956 0.059808 0.228827 
-0.757953 0.098998 0.385284 
-0.757949 0.079350 0.277378 
-0.757939 0.110846 0.464820 
-0.757922 0.091121 0.380606 
-0.757916 0.102937 0.373053 
-0.757891 0.071517 0.323134 
-0.757887 0.118767 0.420865 
-0.757879 0.114798 0.469725 
-0.757870 0.079342 0.300164 
-0.757852 0.071513 0.232727 
-0.757852 0.110833 0.433332 
-0.757852 0.071513 0.307551 
-0.757838 0.122732 0.452216 
-0.757836 0.067604 0.247213 
-0.757836 0.126712 0.439151 
-0.757836 0.055901 0.246904 
-0.757776 0.071506 0.262082 
-0.757769 0.158802 0.562509 
-0.757759 0.126699 0.513346 
-0.757751 0.150726 0.551086 
-0.757750 0.229015 0.499462 
-0.757739 0.079328 0.266060 
-0.757739 0.044220 0.196297 
-0.757701 0.055891 0.250530 
-0.757700 0.098965 0.376829 
-0.757692 0.110810 0.437662 
-0.757690 0.071498 0.396180 
-0.757680 0.142673 0.555036 
-0.757671 0.079321 0.281046 
-0.757664 0.150709 0.571623 
-0.757661 0.079320 0.292428 
-0.757637 0.059783 0.265400 
-0.757618 0.071491 0.338811 
-0.757588 0.114754 0.483454 
-0.757586 0.142655 0.570434 
-0.757583 0.098950 0.356266 
-0.757573 0.138646 0.564700 
-0.757572 0.138645 0.549344 
-0.757571 0.071486 0.265730 
-0.757570 0.126667 0.417036 
-0.757568 0.150690 0.576784 
-0.757552 0.087149 0.347512 
-0.757548 0.083226 0.236639 
-0.757541 0.098944 0.372615 
-0.757536 0.130647 0.475697 
-0.757529 0.102885 0.389523 
-0.757517 0.228945 0.523787 
-0.757515 0.079305 0.269715 
-0.757512 0.138634 0.544247 
-0.757508 0.071481 0.280700 
-0.757503 0.071480 0.292069 
-0.757484 0.079301 0.303856 
-0.757478 0.098936 0.332157 
-0.757464 0.102876 0.423723 
-0.757460 0.051981 0.235750 
-0.757459 0.110776 0.407031 
-0.757442 0.150665 0.581954 
-0.757437 0.091063 0.367974 
-0.757412 0.114727 0.429009 
-0.757402 0.126639 0.425662 
-0.757387 0.110765 0.394229 
-0.757363 0.138607 0.514457 
-0.757360 0.083206 0.243891 
-0.757360 0.098920 0.368409 
-0.757338 0.130613 0.518371 
-0.757327 0.110756 0.419903 
-0.757318 0.098915 0.406092 
-0.757316 0.098915 0.352092 
-0.757305 0.134598 0.490016 
-0.757287 0.150634 0.587134 
-0.757282 0.118672 0.469725 
-0.757279 0.051968 0.242976 
-0.757273 0.079279 0.273374 
-0.757260 0.098907 0.414650 
-0.757255 0.067552 0.232435 
-0.757249 0.055858 0.232142 
-0.757238 0.110743 0.424208 
-0.757232 0.009293 0.178317 
-0.757232 0.091038 0.363781 
-0.757228 0.110742 0.385734 
-0.757210 0.122631 0.483988 
-0.757201 0.126606 0.452216 
-0.757200 0.126606 0.465858 
-0.757198 0.098899 0.418941 
-0.757195 0.134579 0.499433 
-0.757158 0.118652 0.407501 
-0.757156 0.098894 0.364212 
-0.757155 0.071447 0.295749 
-0.757151 0.044185 0.221064 
-0.757139 0.079265 0.315330 
-0.757139 0.044185 0.224655 
-0.757116 0.110725 0.360876 
-0.757113 0.098888 0.423238 
-0.757107 0.071443 0.273036 
-0.757106 0.067539 0.239662 
-0.757102 0.032539 0.188940 
-0.757102 0.055847 0.239361 
-0.757101 0.091022 0.304227 
-0.757096 0.091022 0.347512 
-0.757085 0.059740 0.257794 
-0.757083 0.083175 0.347098 
-0.757069 0.118638 0.460443 
-0.757023 0.079253 0.330961 
-0.757022 0.071435 0.258115 
-0.757021 0.118631 0.420384 
-0.757013 0.183053 0.603033 
-0.757004 0.091011 0.335487 
-0.757001 0.059733 0.228539 
-0.756990 0.071432 0.314948 
-0.756980 0.110706 0.377272 
-0.756980 0.126569 0.438655 
-0.756973 0.150571 0.560746 
-0.756962 0.166732 0.594759 
-0.756953 0.059729 0.232142 
-0.756949 0.071428 0.228827 
-0.756943 0.126563 0.456584 
-0.756939 0.126562 0.512790 
-0.756939 0.150564 0.565882 
-0.756938 0.158628 0.567065 
-0.756930 0.118617 0.474118 
-0.756930 0.118617 0.424693 
-0.756929 0.071426 0.307177 
-0.756903 0.071423 0.288038 
-0.756888 0.110692 0.477986 
-0.756888 0.059724 0.235750 
-0.756883 0.142523 0.559570 
-0.756883 0.142523 0.554452 
-0.756877 0.044169 0.199607 
-0.756874 0.098857 0.431855 
-0.756873 0.110690 0.356689 
-0.756868 0.134520 0.523408 
-0.756854 0.142517 0.564700 
-0.756849 0.071418 0.276693 
-0.756835 0.071417 0.261756 
-0.756834 0.071417 0.236046 
-0.756816 0.118599 0.429009 
-0.756811 0.098849 0.376387 
-0.756806 0.138505 0.558983 
-0.756795 0.224510 0.537478 
-0.756790 0.071413 0.299431 
-0.756778 0.138500 0.518930 
-0.756771 0.138499 0.548763 
-0.756768 0.083141 0.342950 
-0.756766 0.118591 0.464820 
-0.756754 0.110672 0.301263 
-0.756753 0.118589 0.451201 
-0.756743 0.114626 0.389977 
-0.756738 0.079223 0.280700 
-0.756730 0.040279 0.188940 
-0.756705 0.142489 0.539161 
-0.756681 0.079217 0.319036 
-0.756679 0.118577 0.433332 
-0.756672 0.098831 0.323915 
-0.756666 0.134485 0.434809 
-0.756661 0.126516 0.460958 
-0.756659 0.079215 0.311248 
-0.756644 0.142478 0.514457 
-0.756633 0.126511 0.420865 
-0.756629 0.090966 0.331360 
-0.756590 0.110649 0.340438 
-0.756585 0.110648 0.406562 
-0.756574 0.071392 0.291711 
-0.756556 0.110644 0.398027 
-0.756545 0.138457 0.513902 
-0.756527 0.090953 0.400894 
-0.756524 0.110639 0.415127 
-0.756516 0.126491 0.474644 
-0.756515 0.083113 0.239962 
-0.756498 0.138449 0.533516 
-0.756485 0.090948 0.351255 
-0.756475 0.059692 0.268714 
-0.756459 0.110629 0.419422 
-0.756444 0.079193 0.284368 
-0.756437 0.110626 0.389523 
-0.756424 0.126476 0.429497 
-0.756416 0.102734 0.360023 
-0.756416 0.098797 0.351674 
-0.756400 0.110621 0.187058 
-0.756399 0.071376 0.250530 
-0.756369 0.134432 0.498888 
-0.756368 0.122494 0.446847 
-0.756365 0.110616 0.304968 
-0.756357 0.126465 0.465339 
-0.756348 0.138422 0.528456 
-0.756342 0.055791 0.228251 
-0.756337 0.079181 0.273036 
-0.756335 0.118523 0.352930 
-0.756323 0.083092 0.280700 
-0.756319 0.130437 0.479576 
-0.756262 0.110601 0.428032 
-0.756261 0.098777 0.363781 
-0.756261 0.118512 0.398488 
-0.756238 0.067461 0.235750 
-0.756230 0.110596 0.381052 
-0.756220 0.079169 0.314948 
-0.756215 0.118505 0.394229 
-0.756209 0.083079 0.326847 
-0.756207 0.138396 0.485055 
-0.756193 0.090913 0.347098 
-0.756188 0.044129 0.217201 
-0.756172 0.134397 0.461473 
-0.756169 0.102700 0.355844 
-0.756159 0.134395 0.508333 
-0.756159 0.079163 0.307177 
-0.756141 0.220115 0.609767 
-0.756133 0.079160 0.288038 
-0.756127 0.044126 0.210049 
-0.756095 0.126421 0.456073 
-0.756088 0.142373 0.558983 
-0.756075 0.083064 0.334682 
-0.756072 0.220095 0.593388 
-0.756070 0.090898 0.284718 
-0.756065 0.118481 0.424208 
-0.756053 0.055770 0.242671 
-0.756047 0.059658 0.228251 
-0.756046 0.067444 0.265070 
-0.756035 0.098747 0.359597 
-0.756033 0.098747 0.335487 
-0.756021 0.040242 0.195796 
-0.756011 0.138360 0.558395 
-0.756006 0.142358 0.569244 
-0.756000 0.059654 0.231850 
-0.756000 0.044118 0.202913 
-0.755991 0.138356 0.503880 
-0.755970 0.083053 0.295749 
-0.755965 0.166512 0.599359 
-0.755963 0.138351 0.518371 
-0.755939 0.126395 0.442499 
-0.755936 0.059649 0.235453 
-0.755925 0.110551 0.468158 
-0.755914 0.071330 0.276352 
-0.755911 0.044113 0.199352 
-0.755911 0.024746 0.178088 
-0.755905 0.126389 0.407501 
-0.755900 0.142338 0.538587 
-0.755899 0.040235 0.192245 
-0.755897 0.150357 0.534656 
-0.755883 0.122416 0.455561 
-0.755883 0.114496 0.491745 
-0.755882 0.126385 0.411787 
-0.755879 0.090875 0.342950 
-0.755871 0.220037 0.598634 
-0.755871 0.110543 0.332157 
-0.755866 0.134342 0.503332 
-0.755863 0.071325 0.299064 
-0.755856 0.090873 0.354999 
-0.755849 0.138330 0.573792 
-0.755844 0.134339 0.517812 
-0.755838 0.102655 0.392855 
-0.755824 0.228433 0.372394 
-0.755819 0.118443 0.432840 
-0.755816 0.126374 0.460443 
-0.755815 0.090868 0.323134 
-0.755812 0.138323 0.538014 
-0.755810 0.086949 0.311248 
-0.755776 0.090863 0.307551 
-0.755732 0.126360 0.446847 
-0.755718 0.090856 0.330961 
-0.755706 0.110519 0.401825 
-0.755694 0.110518 0.410368 
-0.755691 0.051859 0.224371 
-0.755678 0.110515 0.397565 
-0.755678 0.126351 0.474118 
-0.755659 0.098698 0.331360 
-0.755649 0.090848 0.367106 
-0.755646 0.134303 0.438655 
-0.755640 0.090847 0.299797 
-0.755640 0.071304 0.280008 
-0.755637 0.079108 0.303115 
-0.755628 0.110508 0.393313 
-0.755617 0.051854 0.231558 
-0.755593 0.138283 0.584107 
-0.755587 0.071299 0.310491 
-0.755580 0.150294 0.524533 
-0.755579 0.110501 0.472539 
-0.755573 0.098687 0.367540 
-0.755563 0.126332 0.429009 
-0.755553 0.098684 0.409421 
-0.755550 0.110497 0.364212 
-0.755545 0.150287 0.591106 
-0.755543 0.090835 0.338811 
-0.755524 0.083004 0.338404 
-0.755513 0.126324 0.464820 
-0.755491 0.067395 0.257472 
-0.755473 0.118388 0.368843 
-0.755462 0.138259 0.508333 
-0.755440 0.090823 0.362920 
-0.755434 0.142250 0.494450 
-0.755428 0.090821 0.292069 
-0.755401 0.079083 0.272698 
-0.755398 0.158305 0.555620 
-0.755386 0.150256 0.554452 
-0.755373 0.130274 0.469725 
-0.755367 0.098660 0.363351 
-0.755357 0.150250 0.564700 
-0.755357 0.138240 0.522845 
-0.755349 0.071277 0.283667 
-0.755344 0.110466 0.380606 
-0.755338 0.134249 0.507781 
-0.755328 0.134247 0.460958 
-0.755326 0.110464 0.360023 
-0.755324 0.082982 0.310870 
-0.755309 0.086891 0.307177 
-0.755303 0.126289 0.478516 
-0.755301 0.079073 0.314565 
-0.755299 0.071272 0.295024 
-0.755299 0.150238 0.569839 
-0.755296 0.158284 0.571029 
-0.755288 0.118359 0.419422 
-0.755277 0.118358 0.445839 
-0.755263 0.098647 0.327242 
-0.755250 0.118353 0.473066 
-0.755240 0.134231 0.522282 
-0.755236 0.079066 0.306802 
-0.755235 0.044074 0.220504 
-0.755210 0.150221 0.574989 
-0.755208 0.150220 0.539161 
-0.755207 0.138212 0.552699 
-0.755206 0.110446 0.376387 
-0.755201 0.118346 0.423723 
-0.755186 0.090792 0.334682 
-0.755179 0.079060 0.232142 
-0.755178 0.166339 0.541455 
-0.755161 0.040196 0.199098 
-0.755145 0.079057 0.276352 
-0.755138 0.098630 0.359170 
-0.755137 0.071257 0.257472 
-0.755132 0.059586 0.220784 
-0.755132 0.142193 0.573792 
-0.755126 0.228222 0.376266 
-0.755125 0.079055 0.261431 
-0.755118 0.122292 0.487330 
-0.755113 0.110432 0.343771 
-0.755109 0.044066 0.206216 
-0.755101 0.098626 0.284718 
-0.755098 0.082957 0.284017 
-0.755094 0.079051 0.299064 
-0.755092 0.150197 0.580148 
-0.755079 0.110428 0.355844 
-0.755059 0.102549 0.367540 
-0.755047 0.059579 0.231558 
-0.755042 0.134196 0.502784 
-0.755041 0.110422 0.308300 
-0.755024 0.211439 0.612582 
-0.755024 0.134193 0.465339 
-0.755013 0.126240 0.411314 
-0.755010 0.142170 0.513346 
-0.755006 0.138176 0.537440 
-0.754996 0.071244 0.231850 
-0.754969 0.126233 0.415605 
-0.754955 0.142160 0.498888 
-0.754917 0.090760 0.314948 
-0.754910 0.098600 0.342950 
-0.754909 0.138158 0.512790 
-0.754905 0.059568 0.238760 
-0.754905 0.126222 0.482920 
-0.754901 0.090758 0.322743 
-0.754896 0.082935 0.257794 
-0.754879 0.118295 0.477456 
-0.754876 0.079028 0.291352 
-0.754875 0.082933 0.322352 
-0.754862 0.110396 0.367974 
-0.754858 0.130185 0.464820 
-0.754852 0.102521 0.363351 
-0.754852 0.071230 0.239060 
-0.754839 0.126211 0.473592 
-0.754825 0.166261 0.587739 
-0.754821 0.142135 0.527890 
-0.754818 0.079022 0.310491 
-0.754814 0.126207 0.424208 
-0.754806 0.118284 0.356266 
-0.754724 0.110376 0.418460 
-0.754716 0.044043 0.191999 
-0.754713 0.079011 0.302745 
-0.754707 0.182496 0.601196 
-0.754707 0.051792 0.227674 
-0.754706 0.071216 0.279662 
-0.754682 0.090731 0.350417 
-0.754680 0.082911 0.299064 
-0.754680 0.098571 0.367106 
-0.754641 0.110364 0.422753 
-0.754640 0.071210 0.246286 
-0.754636 0.090726 0.338404 
-0.754625 0.118256 0.440999 
-0.754575 0.098557 0.338811 
-0.754568 0.126166 0.432840 
-0.754567 0.130135 0.497254 
-0.754559 0.122201 0.385284 
-0.754554 0.138093 0.447351 
-0.754544 0.138091 0.522282 
-0.754544 0.138091 0.483988 
-0.754541 0.118242 0.406092 
-0.754531 0.078992 0.295024 
-0.754526 0.228041 0.526680 
-0.754524 0.118240 0.410368 
-0.754509 0.118237 0.397565 
-0.754502 0.090710 0.291711 
-0.754497 0.138083 0.493368 
-0.754489 0.166187 0.566473 
-0.754483 0.126151 0.487330 
-0.754470 0.055653 0.220504 
-0.754466 0.126149 0.477986 
-0.754459 0.166181 0.545978 
-0.754443 0.067301 0.227962 
-0.754436 0.090702 0.310870 
-0.754431 0.142061 0.517812 
-0.754408 0.090699 0.326452 
-0.754405 0.150061 0.538587 
-0.754386 0.118218 0.389069 
-0.754369 0.078975 0.257472 
-0.754365 0.067294 0.260779 
-0.754360 0.071183 0.253526 
-0.754347 0.126129 0.468680 
-0.754346 0.134072 0.474118 
-0.754345 0.142045 0.573194 
-0.754344 0.122167 0.432347 
-0.754321 0.098524 0.346683 
-0.754315 0.130092 0.459928 
-0.754314 0.078970 0.306428 
-0.754311 0.090687 0.358317 
-0.754299 0.138046 0.541938 
-0.754249 0.130080 0.482920 
-0.754231 0.126109 0.441499 
-0.754218 0.098510 0.334682 
-0.754212 0.130074 0.492286 
-0.754185 0.078956 0.261105 
-0.754182 0.086762 0.337998 
-0.754175 0.059510 0.220504 
-0.754175 0.118185 0.380606 
-0.754169 0.078954 0.298698 
-0.754165 0.138022 0.577741 
-0.754165 0.142011 0.532376 
-0.754165 0.059509 0.224087 
-0.754165 0.078954 0.235453 
-0.754155 0.110292 0.371738 
-0.754136 0.150007 0.528456 
-0.754129 0.227921 0.459441 
-0.754118 0.138013 0.488404 
-0.754101 0.102419 0.350836 
-0.754073 0.138005 0.531806 
-0.754068 0.090658 0.342128 
-0.754056 0.090656 0.354153 
-0.754051 0.090656 0.370423 
-0.754037 0.032407 0.184681 
-0.754027 0.126075 0.445839 
-0.754000 0.090649 0.314565 
-0.753992 0.110269 0.300164 
-0.753971 0.110265 0.367540 
-0.753969 0.082833 0.314182 
-0.753946 0.118149 0.436174 
-0.753940 0.223663 0.566137 
-0.753938 0.078930 0.279662 
-0.753916 0.133996 0.455561 
-0.753898 0.078926 0.310113 
-0.753888 0.098467 0.307177 
-0.753876 0.118138 0.372176 
-0.753873 0.043994 0.195296 
-0.753870 0.122090 0.414650 
-0.753862 0.098464 0.288038 
-0.753861 0.036262 0.184681 
-0.753859 0.059485 0.242062 
-0.753859 0.082821 0.287329 
-0.753842 0.126044 0.428032 
-0.753828 0.130008 0.487330 
-0.753822 0.137959 0.507229 
-0.753806 0.071131 0.242366 
-0.753801 0.126037 0.450186 
-0.753789 0.078915 0.302374 
-0.753787 0.051729 0.220225 
-0.753780 0.149936 0.503880 
-0.753772 0.122074 0.389069 
-0.753765 0.078912 0.268380 
-0.753764 0.110235 0.363351 
-0.753759 0.149932 0.548183 
-0.753754 0.133967 0.441999 
-0.753749 0.098449 0.299431 
-0.753741 0.078910 0.249904 
-0.753735 0.166021 0.560746 
-0.753731 0.137942 0.521719 
-0.753714 0.098444 0.350417 
-0.753703 0.110226 0.311627 
-0.753684 0.086704 0.295024 
-0.753669 0.137931 0.492827 
-0.753669 0.098438 0.338404 
-0.753662 0.118105 0.401359 
-0.753651 0.137928 0.474118 
-0.753630 0.141910 0.502784 
-0.753616 0.118097 0.414173 
-0.753616 0.141908 0.517252 
-0.753615 0.122049 0.427543 
-0.753604 0.078895 0.294661 
-0.753601 0.149901 0.538014 
-0.753583 0.141902 0.541938 
-0.753582 0.114147 0.371738 
-0.753580 0.118092 0.392855 
-0.753573 0.133935 0.419903 
-0.753572 0.051714 0.238158 
-0.753564 0.170028 0.571623 
-0.753563 0.071108 0.249591 
-0.753555 0.125996 0.436670 
-0.753552 0.125996 0.454539 
-0.753547 0.227745 0.379705 
-0.753545 0.090595 0.318262 
-0.753534 0.098421 0.291711 
-0.753534 0.082785 0.290994 
-0.753532 0.153896 0.579547 
-0.753521 0.086686 0.257472 
-0.753474 0.137896 0.451201 
-0.753468 0.170007 0.576784 
-0.753427 0.078877 0.257151 
-0.753419 0.098406 0.346268 
-0.753410 0.118065 0.384383 
-0.753383 0.149857 0.584107 
-0.753368 0.118058 0.427054 
-0.753356 0.219305 0.602064 
-0.753338 0.086665 0.261105 
-0.753328 0.149846 0.527890 
-0.753312 0.141850 0.582897 
-0.753293 0.125952 0.406092 
-0.753289 0.137862 0.487867 
-0.753288 0.125951 0.401825 
-0.753277 0.137859 0.478516 
-0.753263 0.118042 0.359597 
-0.753244 0.078858 0.298331 
-0.753231 0.090557 0.295024 
-0.753215 0.078855 0.235157 
-0.753209 0.059434 0.223803 
-0.753189 0.098376 0.295386 
-0.753188 0.129897 0.428032 
-0.753183 0.059432 0.227386 
-0.753174 0.125933 0.418941 
-0.753162 0.137838 0.469203 
-0.753137 0.133857 0.477986 
-0.753136 0.078846 0.238760 
-0.753106 0.137828 0.526190 
-0.753090 0.098363 0.354153 
-0.753088 0.165879 0.591715 
-0.753085 0.098362 0.370423 
-0.753055 0.121958 0.405623 
-0.753049 0.036223 0.187972 
-0.753047 0.028508 0.180919 
-0.753033 0.098355 0.314565 
-0.753018 0.133836 0.468680 
-0.753006 0.149782 0.557807 
-0.753001 0.137809 0.506677 
-0.752984 0.149778 0.562926 
-0.752984 0.125901 0.463264 
-0.752981 0.125900 0.427543 
-0.752979 0.082724 0.306053 
-0.752973 0.090526 0.287329 
-0.752968 0.098347 0.306802 
-0.752936 0.157789 0.569244 
-0.752935 0.098342 0.287684 
-0.752931 0.098342 0.330164 
-0.752918 0.137794 0.521156 
-0.752911 0.090519 0.276010 
-0.752909 0.082717 0.227962 
-0.752894 0.149760 0.542515 
-0.752871 0.071043 0.264081 
-0.752855 0.137782 0.446343 
-0.752853 0.149752 0.573194 
-0.752851 0.125879 0.431855 
-0.752843 0.169865 0.565882 
-0.752842 0.137780 0.492286 
-0.752827 0.078814 0.268046 
-0.752827 0.098328 0.299064 
-0.752814 0.137775 0.473592 
-0.752799 0.059402 0.245359 
-0.752794 0.125869 0.476926 
-0.752781 0.043930 0.191506 
-0.752763 0.165807 0.575587 
-0.752748 0.117961 0.413696 
-0.752743 0.149730 0.578343 
-0.752721 0.110083 0.346683 
-0.752718 0.078802 0.282967 
-0.752710 0.086592 0.341307 
-0.752701 0.137754 0.501687 
-0.752701 0.137754 0.516134 
-0.752689 0.110078 0.303486 
-0.752673 0.149716 0.532376 
-0.752665 0.125847 0.467635 
-0.752665 0.141729 0.577139 
-0.752649 0.078795 0.253208 
-0.752627 0.137740 0.450693 
-0.752626 0.117942 0.388161 
-0.752622 0.129800 0.410368 
-0.752617 0.071019 0.249278 
-0.752609 0.098300 0.291352 
-0.752602 0.149702 0.583502 
-0.752593 0.078789 0.271684 
-0.752582 0.129793 0.414650 
-0.752579 0.090479 0.345439 
-0.752574 0.141711 0.487867 
-0.752571 0.067134 0.220225 
-0.752552 0.098293 0.310491 
-0.752550 0.141707 0.531236 
-0.752543 0.110057 0.375060 
-0.752530 0.098290 0.326058 
-0.752527 0.117927 0.383933 
-0.752522 0.129782 0.445336 
-0.752516 0.098288 0.345853 
-0.752514 0.110052 0.295749 
-0.752514 0.133747 0.428032 
-0.752490 0.090468 0.302374 
-0.752447 0.098279 0.357891 
-0.752447 0.098279 0.302745 
-0.752443 0.137707 0.477986 
-0.752435 0.149669 0.507781 
-0.752434 0.125809 0.458383 
-0.752422 0.125807 0.405623 
-0.752413 0.078771 0.286621 
-0.752407 0.125804 0.409894 
-0.752403 0.098273 0.333876 
-0.752402 0.125804 0.481319 
-0.752398 0.223205 0.559797 
-0.752389 0.110034 0.354576 
-0.752384 0.223201 0.554635 
-0.752376 0.137695 0.455050 
-0.752372 0.137694 0.496710 
-0.752349 0.043905 0.216099 
-0.752341 0.078763 0.275326 
-0.752324 0.137685 0.468680 
-0.752304 0.078759 0.260454 
-0.752274 0.129740 0.380606 
-0.752265 0.098255 0.295024 
-0.752265 0.117886 0.375502 
-0.752250 0.102168 0.337998 
-0.752230 0.090437 0.272022 
-0.752228 0.059357 0.227098 
-0.752219 0.043898 0.205427 
-0.752209 0.070981 0.223803 
-0.752203 0.141642 0.521156 
-0.752199 0.086533 0.264411 
-0.752198 0.129726 0.431855 
-0.752197 0.098246 0.341717 
-0.752191 0.098245 0.353731 
-0.752187 0.078747 0.238459 
-0.752183 0.070978 0.227386 
-0.752181 0.137659 0.506125 
-0.752162 0.149614 0.547021 
-0.752145 0.149611 0.567460 
-0.752128 0.070973 0.260128 
-0.752125 0.165666 0.549344 
-0.752118 0.153608 0.542515 
-0.752117 0.098236 0.314182 
-0.752108 0.098235 0.321962 
-0.752105 0.137645 0.520594 
-0.752102 0.125753 0.449171 
-0.752093 0.149601 0.541938 
-0.752092 0.078737 0.242062 
-0.752090 0.078737 0.290277 
-0.752089 0.121801 0.392397 
-0.752087 0.169695 0.560158 
-0.752080 0.070968 0.234564 
-0.752077 0.121799 0.417979 
-0.752076 0.028471 0.180686 
-0.752072 0.078735 0.278970 
-0.752070 0.109988 0.338404 
-0.752066 0.157607 0.573792 
-0.752052 0.141613 0.545860 
-0.752049 0.098227 0.306428 
-0.752048 0.137634 0.482387 
-0.752015 0.137628 0.491745 
-0.751995 0.149581 0.536867 
-0.751993 0.125735 0.431362 
-0.751981 0.078725 0.245668 
-0.751977 0.090406 0.275668 
-0.751971 0.113903 0.375060 
-0.751954 0.227263 0.383136 
-0.751945 0.090402 0.298331 
-0.751925 0.117832 0.404684 
-0.751913 0.082607 0.231265 
-0.751912 0.149565 0.488404 
-0.751880 0.117825 0.396180 
-0.751878 0.137603 0.501139 
-0.751869 0.129670 0.440499 
-0.751867 0.149556 0.531806 
-0.751857 0.098202 0.337591 
-0.751857 0.125712 0.453516 
-0.751820 0.137593 0.428032 
-0.751814 0.043874 0.191260 
-0.751799 0.070942 0.245359 
-0.751779 0.137585 0.450186 
-0.751762 0.133613 0.423238 
-0.751756 0.157542 0.527890 
-0.751745 0.117804 0.387707 
-0.751745 0.141555 0.487330 
-0.751725 0.059317 0.248651 
-0.751717 0.070934 0.267379 
-0.751716 0.165576 0.585318 
-0.751711 0.149525 0.526757 
-0.751708 0.090374 0.279316 
-0.751706 0.117798 0.362920 
-0.751685 0.102091 0.341717 
-0.751683 0.098179 0.290994 
-0.751668 0.125681 0.439999 
-0.751665 0.098177 0.317876 
-0.751656 0.129633 0.418460 
-0.751656 0.109927 0.374618 
-0.751637 0.137559 0.510568 
-0.751634 0.098173 0.310113 
-0.751626 0.218801 0.584562 
-0.751625 0.133589 0.449678 
-0.751619 0.098171 0.325663 
-0.751617 0.149506 0.507229 
-0.751610 0.141530 0.468680 
-0.751609 0.137554 0.477456 
-0.751607 0.067048 0.223519 
-0.751592 0.109918 0.295386 
-0.751564 0.222958 0.569563 
-0.751543 0.078680 0.256508 
-0.751542 0.125660 0.400894 
-0.751539 0.165537 0.590497 
-0.751531 0.137540 0.454539 
-0.751526 0.098158 0.302374 
-0.751520 0.117769 0.430378 
-0.751510 0.125654 0.396641 
-0.751510 0.129608 0.384383 
-0.751510 0.102067 0.329765 
-0.751507 0.149484 0.483454 
-0.751483 0.078673 0.286266 
-0.751475 0.098152 0.373733 
-0.751471 0.125648 0.444328 
-0.751467 0.141503 0.506125 
-0.751456 0.125645 0.392397 
-0.751444 0.078669 0.223803 
-0.751417 0.078666 0.227386 
-0.751413 0.157470 0.562926 
-0.751407 0.078665 0.274983 
-0.751406 0.149464 0.551531 
-0.751378 0.133545 0.454027 
-0.751375 0.078662 0.230973 
-0.751371 0.109885 0.306802 
-0.751365 0.165499 0.558983 
-0.751364 0.125630 0.422269 
-0.751363 0.149455 0.546440 
-0.751334 0.109880 0.330164 
-0.751317 0.043845 0.208712 
-0.751304 0.059284 0.219665 
-0.751301 0.121674 0.408948 
-0.751292 0.149441 0.541361 
-0.751268 0.189817 0.599972 
-0.751267 0.121668 0.396180 
-0.751267 0.137491 0.401825 
-0.751259 0.137490 0.458898 
-0.751239 0.078648 0.238158 
-0.751230 0.109865 0.299064 
-0.751217 0.109863 0.349999 
-0.751201 0.098116 0.313800 
-0.751195 0.098115 0.321571 
-0.751191 0.149421 0.536293 
-0.751188 0.070884 0.230681 
-0.751176 0.149418 0.577139 
-0.751173 0.090310 0.305678 
-0.751166 0.078640 0.263752 
-0.751165 0.141446 0.501139 
-0.751155 0.137471 0.445336 
-0.751145 0.078638 0.241757 
-0.751130 0.098107 0.306053 
-0.751097 0.086407 0.301633 
-0.751080 0.098100 0.286975 
-0.751076 0.133491 0.481319 
-0.751070 0.149397 0.511679 
-0.751069 0.137455 0.423238 
-0.751066 0.226995 0.452999 
-0.751054 0.070872 0.237858 
-0.751053 0.133487 0.490663 
-0.751047 0.153389 0.582897 
-0.751045 0.086401 0.267712 
-0.751035 0.078626 0.245359 
-0.751020 0.125572 0.375502 
-0.751014 0.098092 0.275668 
-0.751013 0.098091 0.349162 
-0.751006 0.169451 0.580148 
-0.750998 0.133477 0.444832 
-0.750994 0.149382 0.497254 
-0.750982 0.098087 0.298331 
-0.750959 0.149375 0.469203 
-0.750958 0.117681 0.417017 
-0.750951 0.082502 0.260128 
-0.750945 0.117679 0.391482 
-0.750944 0.121616 0.346683 
-0.750938 0.165405 0.584713 
-0.750934 0.109821 0.326058 
