# .PCD v.7 - Point Cloud Data file format
VERSION .7
FIELDS x y z
SIZE 4 4 4
TYPE F F F
COUNT 1 1 1
WIDTH 1588
HEIGHT 1
POINTS 1588
DATA ascii
0.243127 -0.586962 0.058388 
0.243140 -0.586991 0.092132 
0.243155 -0.587028 -0.027732 
0.243173 -0.578684 0.124867 
0.243175 -0.587077 0.044445 
0.243247 -0.587251 0.041672 
0.243249 -0.570676 0.169138 
0.243291 -0.587357 0.089359 
0.243311 -0.579013 0.049439 
0.243313 -0.587410 0.052841 
0.243337 -0.570883 0.160502 
0.243338 -0.587471 0.080903 
0.243339 -0.579080 0.127804 
0.243378 -0.570980 0.151890 
0.243382 -0.579181 0.122127 
0.243392 -0.579206 0.046698 
0.243399 -0.587617 0.050067 
0.243404 -0.579235 0.116458 
0.243461 -0.587768 0.069684 
0.243471 -0.587792 0.078128 
0.243520 -0.579510 0.096760 
0.243549 -0.571381 0.132033 
0.243575 -0.588043 0.066908 
0.243580 -0.588055 0.083807 
0.243586 -0.579667 0.119385 
0.243599 -0.579698 0.113715 
0.243599 -0.588101 0.075351 
0.243608 -0.579720 0.038470 
0.243635 -0.571584 0.149180 
0.243681 -0.579893 0.094016 
0.243685 -0.588307 0.064130 
0.243687 -0.579908 0.159763 
0.243704 -0.571745 0.134954 
0.243719 -0.579983 0.128003 
0.243723 -0.588399 0.072573 
0.243762 -0.580086 0.122318 
0.243762 -0.571881 0.040756 
0.243767 -0.571893 0.095695 
0.243773 -0.571905 0.129322 
0.243789 -0.580150 0.110970 
0.243810 -0.571993 0.016292 
0.243817 -0.588627 0.086719 
0.243830 -0.572039 0.038043 
0.243888 -0.572177 0.146468 
0.243906 -0.580430 0.055092 
0.243928 -0.572271 0.092981 
0.243933 -0.580492 0.125257 
0.243950 -0.580533 -0.019229 
0.243956 -0.588962 0.067012 
0.243966 -0.580572 0.119571 
0.243974 -0.580591 0.108224 
0.243980 -0.580605 -0.016482 
0.243980 -0.580605 0.113893 
0.243990 -0.580628 0.088524 
0.243997 -0.580646 0.052344 
0.244043 -0.580754 -0.008237 
0.244050 -0.572555 0.115364 
0.244065 -0.589226 0.064230 
0.244076 -0.589251 0.053007 
0.244085 -0.572639 0.090266 
0.244090 -0.572651 0.172645 
0.244131 -0.589384 0.008361 
0.244137 -0.580978 0.085775 
0.244143 -0.589413 0.005578 
0.244143 -0.589413 -0.005557 
0.244150 -0.589430 -0.002774 
0.244155 -0.581020 0.105475 
0.244166 -0.581048 0.116822 
0.244170 -0.581058 0.111144 
0.244170 -0.589480 0.061447 
0.244236 -0.572994 0.138098 
0.244245 -0.573013 0.112647 
0.244271 -0.589722 0.058662 
0.244284 -0.573105 0.035386 
0.244331 -0.581439 0.102724 
0.244356 -0.581499 0.108393 
0.244366 -0.589952 0.055877 
0.244367 -0.581526 0.016527 
0.244369 -0.573305 0.158285 
0.244376 -0.573320 0.098719 
0.244376 -0.573321 0.126807 
0.244381 -0.581560 0.038592 
0.244435 -0.573460 0.109928 
0.244582 -0.582039 0.058022 
0.244590 -0.573824 0.124087 
0.244612 -0.573876 0.038165 
0.244621 -0.573896 0.107207 
0.244638 -0.573935 0.155565 
0.244652 -0.573968 0.146926 
0.244678 -0.582266 0.055266 
0.244719 -0.590803 0.084199 
0.244762 -0.582467 0.063629 
0.244769 -0.582483 0.052510 
0.244786 -0.574284 0.046401 
0.244800 -0.574317 0.121364 
0.244856 -0.582689 0.049753 
0.244857 -0.591137 0.081408 
0.244864 -0.574465 0.043677 
0.244868 -0.582717 0.060872 
0.244885 -0.582757 0.100127 
0.244901 -0.574552 0.144203 
0.244901 -0.574554 0.152841 
0.244916 -0.574589 0.082241 
0.244918 -0.574593 0.054656 
0.244938 -0.582884 0.046994 
0.244968 -0.582957 0.058113 
0.244991 -0.591460 0.078615 
0.245006 -0.574798 0.118638 
0.245015 -0.583067 0.044235 
0.245048 -0.583146 0.083285 
0.245051 -0.574904 0.167465 
0.245052 -0.574908 0.071214 
0.245055 -0.574914 0.079515 
0.245087 -0.583239 0.041475 
0.245095 -0.583259 0.103045 
0.245096 -0.575010 0.049203 
0.245098 -0.591718 0.067326 
0.245119 -0.591771 0.075821 
0.245161 -0.575162 0.150114 
0.245172 -0.575188 0.068487 
0.245177 -0.575202 0.046476 
0.245208 -0.591984 0.064531 
0.245244 -0.592071 0.073026 
0.245267 -0.583668 0.100284 
0.245286 -0.575458 0.065758 
0.245360 -0.575629 0.124477 
0.245391 -0.575702 0.118825 
0.245403 -0.575731 0.013666 
0.245423 -0.584039 0.066594 
0.245529 -0.584291 -0.016586 
0.245570 -0.576123 0.121745 
0.245571 -0.584390 0.080651 
0.245574 -0.584397 0.072233 
0.245575 -0.576135 0.104814 
0.245576 -0.584402 0.011075 
0.245576 -0.584403 -0.011055 
0.245592 -0.584441 -0.008289 
0.245614 -0.576227 0.162005 
0.245673 -0.593108 -0.005592 
0.245680 -0.593125 0.002811 
0.245683 -0.593131 0.000010 
0.245704 -0.584709 0.077884 
0.245752 -0.576550 0.102081 
0.245755 -0.584828 0.091988 
0.245791 -0.576640 0.088106 
0.245877 -0.576844 0.049360 
0.245886 -0.585140 -0.019382 
0.245889 -0.576871 0.159270 
0.246056 -0.594032 0.005621 
0.246056 -0.585546 0.086449 
0.246063 -0.594049 -0.002795 
0.246065 -0.594055 0.000010 
0.246078 -0.585599 0.069575 
0.246174 -0.577539 0.113537 
0.246198 -0.585884 -0.024959 
0.246200 -0.585888 0.083677 
0.246238 -0.585978 -0.022186 
0.246292 -0.577817 0.142138 
0.246356 -0.577966 0.077153 
0.246363 -0.577983 0.116458 
0.246366 -0.577990 0.110797 
0.246428 -0.578136 0.043956 
0.246472 -0.578240 0.165500 
0.246474 -0.586539 0.078128 
0.246501 -0.578307 0.041214 
0.246553 -0.578429 0.108054 
0.246560 -0.578445 0.113715 
0.246566 -0.578458 0.168500 
0.246567 -0.578462 0.063328 
0.246603 -0.586847 0.075351 
0.246625 -0.586900 -0.022221 
0.246681 -0.578729 0.128003 
0.246728 -0.587145 0.072573 
0.246736 -0.578857 0.105310 
0.246752 -0.578896 0.110970 
0.246852 -0.579129 0.165755 
0.246913 -0.579274 0.102563 
0.246932 -0.579317 0.119571 
0.246940 -0.579336 0.108224 
0.246961 -0.579385 0.038531 
0.247063 -0.579626 0.060680 
0.247086 -0.579680 0.099815 
0.247104 -0.588039 0.013928 
0.247108 -0.588048 0.081156 
0.247125 -0.588089 0.011145 
0.247134 -0.579792 0.116822 
0.247141 -0.588129 0.008361 
0.247153 -0.588157 0.005578 
0.247153 -0.588157 -0.005557 
0.247160 -0.588173 0.002794 
0.247160 -0.588174 -0.002774 
0.247163 -0.588179 0.000010 
0.247165 -0.579864 0.057930 
0.247236 -0.580032 0.066281 
0.247262 -0.580091 0.055179 
0.247264 -0.580098 0.074646 
0.247283 -0.580143 0.041344 
0.247301 -0.580183 0.157258 
0.247315 -0.588541 -0.027863 
0.247337 -0.580269 0.016527 
0.247347 -0.580292 0.063529 
0.247354 -0.580307 0.052427 
0.247390 -0.580392 0.071893 
0.247441 -0.580512 0.049674 
0.247448 -0.580529 0.151515 
0.247450 -0.580532 0.128402 
0.247489 -0.564547 0.026923 
0.247493 -0.580634 0.085909 
0.247495 -0.580638 0.122699 
0.247509 -0.580672 0.105640 
0.247510 -0.580675 0.069140 
0.247524 -0.580706 0.046920 
0.247536 -0.580734 0.137076 
0.247567 -0.580809 0.154505 
0.247575 -0.580827 0.145777 
0.247578 -0.580833 0.091558 
0.247602 -0.580889 0.044166 
0.247611 -0.580912 0.131358 
0.247619 -0.589264 0.070011 
0.247626 -0.580947 0.066385 
0.247638 -0.580973 0.083155 
0.247642 -0.580985 0.097216 
0.247652 -0.589344 -0.030696 
0.247667 -0.581042 0.125647 
0.247682 -0.581077 0.140045 
0.247687 -0.581090 0.102885 
0.247705 -0.581131 0.148760 
0.247732 -0.581195 0.088802 
0.247735 -0.589540 0.067221 
0.247768 -0.581279 0.134320 
0.247777 -0.581299 0.011040 
0.247778 -0.581302 0.080398 
0.247793 -0.581338 0.008282 
0.247822 -0.581406 0.143021 
0.247846 -0.589805 0.064431 
0.247882 -0.581546 0.086044 
0.247928 -0.590000 0.005595 
0.247953 -0.590059 0.061638 
0.247957 -0.581723 0.146002 
0.248043 -0.581925 0.074881 
0.248142 -0.590510 0.075821 
0.248167 -0.582214 0.080524 
0.248167 -0.582214 0.172557 
0.248194 -0.582279 0.094607 
0.248201 -0.566173 0.131409 
0.248234 -0.582373 0.060968 
0.248241 -0.566264 0.029708 
0.248273 -0.566338 0.157055 
0.248302 -0.582532 0.077762 
0.248336 -0.566480 0.024311 
0.248336 -0.582612 0.058205 
0.248354 -0.582653 0.091845 
0.248426 -0.591186 -0.030792 
0.248429 -0.566693 0.128711 
0.248476 -0.591304 -0.027994 
0.248508 -0.583017 0.089080 
0.248513 -0.583028 0.016606 
0.248521 -0.591411 -0.025195 
0.248526 -0.583058 0.052676 
0.248539 -0.583089 0.013841 
0.248546 -0.566960 0.154355 
0.248561 -0.583139 0.011075 
0.248588 -0.567054 0.032458 
0.248589 -0.583206 0.005542 
0.248625 -0.583289 0.061063 
0.248659 -0.583368 0.086314 
0.248687 -0.567281 0.148714 
0.248703 -0.591844 -0.005592 
0.248710 -0.591861 0.002811 
0.248710 -0.591861 -0.002791 
0.248712 -0.591867 0.000010 
0.248727 -0.583529 0.058296 
0.248777 -0.567487 0.021647 
0.248814 -0.567571 0.151652 
0.248824 -0.583757 0.055528 
0.248917 -0.583974 0.052759 
0.248970 -0.584098 0.143683 
0.248988 -0.584142 0.002781 
0.248991 -0.584148 0.000010 
0.249023 -0.584223 0.100597 
0.249080 -0.584358 0.078006 
0.249096 -0.584394 -0.030504 
0.249146 -0.584511 -0.027732 
0.249147 -0.584515 0.132173 
0.249191 -0.584617 -0.024959 
0.249193 -0.584622 0.097825 
0.249211 -0.584665 0.075233 
0.249213 -0.584669 0.140911 
0.249267 -0.584795 -0.019412 
0.249324 -0.584929 -0.013864 
0.249336 -0.568762 0.146239 
0.249358 -0.585009 0.095051 
0.249361 -0.585017 0.008335 
0.249371 -0.568841 0.092833 
0.249373 -0.585045 0.005560 
0.249380 -0.585062 0.002785 
0.249452 -0.585229 0.138137 
0.249531 -0.569207 0.090123 
0.249603 -0.569370 0.095695 
0.249615 -0.569399 0.019005 
0.249654 -0.569487 0.101277 
0.249686 -0.585778 0.135360 
0.249687 -0.569561 0.087410 
0.249715 -0.585848 0.013906 
0.249737 -0.585898 0.011127 
0.249768 -0.569747 0.092981 
0.249829 -0.569887 0.098563 
0.249832 -0.569894 0.126608 
0.249934 -0.570125 0.172645 
0.250015 -0.586550 -0.022256 
0.250052 -0.570395 0.123891 
0.250078 -0.586700 0.064230 
0.250081 -0.586707 -0.016691 
0.250092 -0.570485 0.112647 
0.250146 -0.586857 0.008361 
0.250234 -0.570810 0.169927 
0.250235 -0.570813 0.084831 
0.250239 -0.587076 0.069902 
0.250266 -0.570884 0.104319 
0.250267 -0.570884 0.121173 
0.250360 -0.571097 0.065549 
0.250372 -0.571125 0.143978 
0.250468 -0.571344 0.038165 
0.250475 -0.571360 0.138314 
0.250529 -0.571484 0.167206 
0.250533 -0.571491 0.035443 
0.250619 -0.571689 0.127006 
0.250621 -0.571693 0.170190 
0.250622 -0.571695 0.141255 
0.250639 -0.571734 0.149881 
0.250661 -0.571783 0.121364 
0.250682 -0.571831 0.115729 
0.250702 -0.564016 0.165394 
0.250715 -0.571908 0.135591 
0.250717 -0.571911 0.161504 
0.250791 -0.572082 0.073940 
0.250820 -0.572146 0.164482 
0.250839 -0.572191 0.124282 
0.250871 -0.572263 0.118638 
0.250889 -0.564437 0.171309 
0.250919 -0.572372 0.071214 
0.250950 -0.572444 0.132865 
0.250974 -0.564628 0.174274 
0.250992 -0.564670 0.162699 
0.251041 -0.572651 0.068487 
0.251048 -0.564795 0.154113 
0.251076 -0.572731 0.115911 
0.251078 -0.572734 0.110276 
0.251094 -0.564899 0.165653 
0.251105 -0.572798 0.161754 
0.251166 -0.565061 0.157055 
0.251181 -0.572969 0.130136 
0.251190 -0.565115 0.168612 
0.251252 -0.573132 0.016397 
0.251277 -0.573189 0.113181 
0.251278 -0.565314 0.160002 
0.251290 -0.573219 0.147385 
0.251305 -0.589578 -0.011177 
0.251322 -0.589617 -0.008380 
0.251363 -0.573386 0.049282 
0.251385 -0.565554 0.162954 
0.251387 -0.573439 0.159024 
0.251447 -0.573578 0.046550 
0.251473 -0.573636 0.110449 
0.251486 -0.565782 0.165912 
0.251526 -0.573758 0.043817 
0.251546 -0.573803 0.144652 
0.251561 -0.565950 0.140152 
0.251582 -0.565996 0.168875 
0.251601 -0.573928 0.041083 
0.251649 -0.590385 -0.016796 
0.251651 -0.566153 0.134530 
0.251664 -0.574072 0.107716 
0.251671 -0.566198 0.171843 
0.251672 -0.566199 0.160252 
0.251676 -0.590447 -0.013995 
0.251706 -0.566276 0.143078 
0.251726 -0.590565 -0.005592 
0.251733 -0.590582 -0.002791 
0.251736 -0.590587 0.000010 
0.251778 -0.566438 0.163209 
0.251797 -0.574375 0.141918 
0.251798 -0.566484 0.117706 
0.251807 -0.566504 0.137448 
0.251827 -0.574443 0.085370 
0.251846 -0.566590 0.146009 
0.251850 -0.574497 0.104980 
0.251882 -0.574570 0.057655 
0.251947 -0.566818 0.126209 
0.251953 -0.566832 0.157547 
0.251981 -0.574795 0.054918 
0.251986 -0.566906 0.120600 
0.252005 -0.566948 0.115000 
0.252032 -0.574911 0.102242 
0.252060 -0.574975 0.107885 
0.252063 -0.567079 0.172110 
0.252065 -0.567083 0.160502 
0.252075 -0.575009 0.052179 
0.252089 -0.591417 -0.011212 
0.252102 -0.567167 0.143303 
0.252106 -0.591457 -0.008407 
0.252118 -0.591485 0.005621 
0.252118 -0.591485 -0.005601 
0.252119 -0.567204 0.129118 
0.252125 -0.591502 -0.002795 
0.252168 -0.567316 0.123501 
0.252174 -0.591616 -0.033694 
0.252194 -0.567374 0.106699 
0.252198 -0.567382 0.117892 
0.252209 -0.575314 0.099502 
0.252230 -0.567455 0.154839 
0.252241 -0.567479 0.146239 
0.252251 -0.575412 0.030188 
0.252285 -0.567578 0.132033 
0.252302 -0.575527 0.027446 
0.252348 -0.575631 0.024704 
0.252354 -0.567733 0.140593 
0.252366 -0.567760 0.169401 
0.252374 -0.567779 0.149180 
0.252380 -0.575706 0.096760 
0.252404 -0.567846 0.115182 
0.252454 -0.567959 0.172377 
0.252482 -0.575939 0.013731 
0.252498 -0.568057 0.143528 
0.252502 -0.568067 0.152128 
0.252537 -0.576063 0.035726 
0.252567 -0.568212 0.123696 
0.252578 -0.576158 0.060584 
0.252597 -0.576201 0.032981 
0.252600 -0.568288 0.137881 
0.252606 -0.568300 0.112469 
0.252621 -0.592664 -0.030936 
0.252624 -0.568341 0.155081 
0.252671 -0.592783 -0.028124 
0.252682 -0.576394 0.057839 
0.252717 -0.592890 -0.025312 
0.252741 -0.568603 0.158039 
0.252750 -0.568624 0.140814 
0.252758 -0.592986 -0.022500 
0.252770 -0.576594 0.082893 
0.252781 -0.576620 0.055092 
0.252794 -0.593071 -0.019687 
0.252825 -0.593144 -0.016874 
0.252842 -0.568832 0.135166 
0.252852 -0.593206 -0.014060 
0.252873 -0.593257 -0.011247 
0.252884 -0.576854 0.013753 
0.252890 -0.593296 -0.008433 
0.252902 -0.593325 -0.005619 
0.252905 -0.576904 0.011005 
0.252909 -0.593341 0.002824 
0.252912 -0.593347 0.000010 
0.252913 -0.576920 0.080146 
0.252922 -0.576942 0.008256 
0.252934 -0.576970 0.005508 
0.252997 -0.569180 0.138098 
0.253051 -0.577235 0.077396 
0.253079 -0.569366 0.132449 
0.253164 -0.569556 0.149647 
0.253182 -0.569597 0.104319 
0.253269 -0.577733 0.063529 
0.253291 -0.569842 0.152603 
0.253302 -0.594261 -0.002809 
0.253312 -0.569888 0.129729 
0.253314 -0.569893 0.095999 
0.253349 -0.594372 -0.033851 
0.253365 -0.577951 0.049674 
0.253404 -0.594502 -0.031032 
0.253427 -0.570148 0.146926 
0.253481 -0.570270 0.093277 
0.253512 -0.570339 0.032720 
0.253529 -0.578326 0.044166 
0.253539 -0.570400 0.127006 
0.253542 -0.570407 0.098876 
0.253559 -0.570445 0.149881 
0.253568 -0.570464 0.029996 
0.253628 -0.578553 0.019310 
0.253644 -0.570636 0.090553 
0.253660 -0.578625 0.016554 
0.253668 -0.578644 0.063629 
0.253674 -0.578657 0.038653 
0.253675 -0.578660 0.052510 
0.253709 -0.570783 0.129933 
0.253777 -0.578893 0.060872 
0.253790 -0.570964 0.138530 
0.253822 -0.571037 0.147156 
0.253857 -0.571115 0.035499 
0.253883 -0.571174 0.093425 
0.253937 -0.571295 0.127206 
0.253980 -0.571391 0.121554 
0.253983 -0.571399 0.104649 
0.254024 -0.571491 0.027315 
0.254033 -0.571511 0.135803 
0.254081 -0.571619 0.144428 
0.254146 -0.579734 0.002772 
0.254160 -0.571797 0.124477 
0.254166 -0.571811 0.101920 
0.254201 -0.571888 0.156049 
0.254205 -0.571897 0.087967 
0.254246 -0.571989 0.071327 
0.254250 -0.579971 0.047068 
0.254271 -0.572047 0.133073 
0.254308 -0.572130 0.060296 
0.254345 -0.572212 0.099189 
0.254362 -0.580227 0.083416 
0.254370 -0.572268 0.068596 
0.254379 -0.572288 0.121745 
0.254380 -0.580267 0.074998 
0.254401 -0.572339 0.116093 
0.254403 -0.572343 0.110449 
0.254405 -0.580325 0.041541 
0.254413 -0.572365 0.057564 
0.254424 -0.572391 0.162005 
0.254476 -0.572507 0.024626 
0.254489 -0.572536 0.065862 
0.254505 -0.572572 0.130340 
0.254506 -0.580554 0.080651 
0.254509 -0.580561 0.072233 
0.254512 -0.572589 0.054830 
0.254518 -0.572602 0.096456 
0.254559 -0.572693 0.124672 
0.254567 -0.572713 0.102081 
0.254596 -0.572778 0.107716 
0.254603 -0.572793 0.063128 
0.254604 -0.572796 0.113359 
0.254607 -0.572802 0.088106 
0.254607 -0.572802 0.052096 
0.254630 -0.597378 -0.028342 
0.254633 -0.580845 0.069467 
0.254645 -0.580871 0.077884 
0.254676 -0.597486 -0.025509 
0.254686 -0.572981 0.093720 
0.254697 -0.573005 0.049360 
0.254709 -0.573032 0.159270 
0.254733 -0.573086 0.127605 
0.254752 -0.581117 0.066699 
0.254761 -0.573148 0.085370 
0.254777 -0.573185 0.121936 
0.254782 -0.573196 0.046624 
0.254836 -0.573317 0.027403 
0.254850 -0.573349 0.090984 
0.254862 -0.573376 0.043886 
0.254909 -0.573482 0.082632 
0.254923 -0.573513 0.021927 
0.254991 -0.573666 0.119198 
0.254996 -0.573678 0.107885 
0.255008 -0.573704 0.038409 
0.255009 -0.573707 0.088245 
0.255053 -0.573807 0.079893 
0.255102 -0.573915 0.049439 
0.255109 -0.598502 -0.022709 
0.255163 -0.574053 0.085505 
0.255185 -0.574103 0.105145 
0.255203 -0.574143 0.110797 
0.255264 -0.574280 0.153792 
0.255312 -0.574388 0.082763 
0.255321 -0.574410 0.055005 
0.255327 -0.574422 0.074411 
0.255343 -0.574458 0.041214 
0.255369 -0.574517 0.102402 
0.255390 -0.574564 0.119385 
0.255397 -0.574580 0.016475 
0.255411 -0.574612 0.088384 
0.255411 -0.574612 0.063328 
0.255424 -0.574640 0.013731 
0.255446 -0.574689 0.010987 
0.255456 -0.574713 0.080019 
0.255479 -0.574764 0.035726 
0.255521 -0.574859 0.060584 
0.255540 -0.574901 0.032981 
0.255548 -0.574920 0.099658 
0.255596 -0.575027 0.077275 
0.255596 -0.575027 0.030236 
0.255599 -0.583047 0.022241 
0.255626 -0.575095 0.057839 
0.255647 -0.575143 0.027490 
0.255694 -0.575247 0.024743 
0.255715 -0.575294 0.082893 
0.255771 -0.575422 0.019249 
0.255797 -0.575479 0.108224 
0.255821 -0.575534 0.052344 
0.255847 -0.560089 0.170774 
0.255912 -0.575737 0.049596 
0.255935 -0.560281 0.173731 
0.255997 -0.575930 0.046846 
0.255999 -0.575933 0.077396 
0.256053 -0.576055 0.027533 
0.256099 -0.576160 0.024783 
0.256134 -0.584268 0.008361 
0.256141 -0.576253 0.022031 
0.256153 -0.576281 0.041344 
0.256154 -0.560761 0.168086 
0.256171 -0.576321 0.102724 
0.256177 -0.576335 0.019280 
0.256209 -0.576407 0.016527 
0.256224 -0.576441 0.038592 
0.256236 -0.576467 0.013775 
0.256247 -0.560965 0.171041 
0.256258 -0.576516 0.011022 
0.256262 -0.576526 0.080272 
0.256275 -0.576555 0.008269 
0.256287 -0.576583 0.005516 
0.256295 -0.576599 0.002763 
0.256330 -0.576678 0.060776 
0.256351 -0.576726 0.033086 
0.256402 -0.576840 0.077518 
0.256407 -0.576853 0.030332 
0.256415 -0.576869 0.137076 
0.256435 -0.576915 0.058022 
0.256456 -0.561423 0.165394 
0.256483 -0.577022 0.044166 
0.256505 -0.577073 0.024822 
0.256535 -0.577141 0.055266 
0.256537 -0.577144 0.074763 
0.256547 -0.577166 0.022066 
0.256555 -0.561639 0.168349 
0.256631 -0.577356 0.052510 
0.256655 -0.577410 0.134320 
0.256667 -0.577437 0.072007 
0.256695 -0.577500 0.094460 
0.256696 -0.577501 0.035896 
0.256735 -0.562032 0.174274 
0.256754 -0.562074 0.162699 
0.256776 -0.562123 0.137015 
0.256788 -0.577708 0.105805 
0.256792 -0.577718 0.069249 
0.256805 -0.577747 0.077640 
0.256860 -0.577871 0.091701 
0.256888 -0.577934 0.044235 
0.256912 -0.577989 0.066490 
0.256940 -0.578051 0.055354 
0.256940 -0.578052 0.074881 
0.256949 -0.586128 0.005595 
0.256964 -0.578105 0.041475 
0.256989 -0.578162 0.019341 
0.257022 -0.562661 0.134317 
0.257028 -0.578249 0.063729 
0.257035 -0.578265 0.038714 
0.257070 -0.578344 0.011057 
0.257070 -0.578345 0.072120 
0.257087 -0.578382 0.008296 
0.257100 -0.578410 0.005534 
0.257153 -0.578530 0.100284 
0.257196 -0.578627 0.069358 
0.257196 -0.578628 0.117369 
0.257222 -0.563099 0.145780 
0.257263 -0.563189 0.131617 
0.257328 -0.578924 0.097520 
0.257354 -0.563389 0.103659 
0.257358 -0.587061 0.002807 
0.257362 -0.563407 0.120410 
0.257395 -0.579075 0.019371 
0.257402 -0.579091 0.114605 
0.257427 -0.579147 0.016606 
0.257449 -0.563595 0.160252 
0.257454 -0.579208 0.013841 
0.257474 -0.579253 0.072233 
0.257484 -0.563673 0.143078 
0.257499 -0.563706 0.128914 
0.257540 -0.563795 0.100956 
0.257600 -0.579535 0.069467 
0.257603 -0.579542 0.111839 
0.257661 -0.564059 0.166171 
0.257720 -0.579807 0.066699 
0.257730 -0.564212 0.126209 
0.257737 -0.564226 0.157547 
0.257741 -0.564235 0.140373 
0.257836 -0.580067 0.063930 
0.257851 -0.564476 0.160502 
0.257919 -0.580254 0.002781 
0.257947 -0.580316 0.061159 
0.257959 -0.564713 0.163463 
0.258020 -0.564846 0.154839 
0.258031 -0.564870 0.146239 
0.258104 -0.580669 0.044445 
0.258139 -0.565107 0.157793 
0.258180 -0.580840 0.041672 
0.258197 -0.565232 0.109581 
0.258298 -0.565455 0.152128 
0.258318 -0.581151 0.036123 
0.258360 -0.565591 0.101277 
0.258393 -0.565662 0.106869 
0.258572 -0.566053 0.149414 
0.258612 -0.589920 -0.033746 
0.258645 -0.581888 0.016685 
0.258695 -0.581998 0.011127 
0.258718 -0.566373 0.095847 
0.258804 -0.566563 0.138098 
0.258889 -0.566748 0.093129 
0.258952 -0.566886 0.098719 
0.258957 -0.566897 0.141035 
0.259054 -0.567110 0.043607 
0.259103 -0.567218 0.143978 
0.259113 -0.567238 0.054569 
0.259209 -0.567449 0.051847 
0.259256 -0.567552 0.071101 
0.259301 -0.567650 0.049125 
0.259359 -0.567777 0.127006 
0.259373 -0.567809 0.084965 
0.259382 -0.567828 0.068378 
0.259387 -0.567839 0.046401 
0.259401 -0.567869 0.076665 
0.259402 -0.567871 0.121364 
0.259458 -0.567994 0.135591 
0.259466 -0.568013 0.090553 
0.259469 -0.568018 0.043677 
0.259470 -0.591879 -0.031032 
0.259504 -0.568094 0.065653 
0.259524 -0.583865 0.008374 
0.259525 -0.568140 0.082241 
0.259537 -0.568167 0.073940 
0.259587 -0.568276 0.124282 
0.259619 -0.568347 0.118638 
0.259620 -0.568350 0.062927 
0.259648 -0.568409 0.010918 
0.259701 -0.568527 0.132865 
0.259708 -0.592421 -0.014104 
0.259715 -0.568556 0.049203 
0.259785 -0.568710 0.085100 
0.259802 -0.568746 0.046476 
0.259832 -0.568813 0.115911 
0.259940 -0.569049 0.130136 
0.259943 -0.584806 0.005595 
0.259944 -0.569058 0.021857 
0.259960 -0.569093 0.041017 
0.260028 -0.569241 0.118825 
0.260032 -0.569251 0.038287 
0.260040 -0.569267 0.113181 
0.260146 -0.569499 0.060296 
0.260153 -0.593438 -0.036783 
0.260161 -0.569533 0.032824 
0.260218 -0.569658 0.030092 
0.260223 -0.569669 0.104814 
0.260242 -0.569711 0.110449 
0.260253 -0.569733 0.057564 
0.260270 -0.569772 0.027359 
0.260354 -0.569956 0.054830 
0.260360 -0.569969 0.096456 
0.260451 -0.570168 0.088106 
0.260451 -0.570168 0.052096 
0.260514 -0.570305 0.035613 
0.260533 -0.570347 0.093720 
0.260576 -0.570441 0.032877 
0.260616 -0.594494 -0.034008 
0.260700 -0.570713 0.090984 
0.260726 -0.594743 -0.028342 
0.260732 -0.570784 0.024665 
0.260761 -0.570846 0.082632 
0.260763 -0.586651 0.002811 
0.260812 -0.570958 0.019188 
0.260815 -0.594947 -0.022674 
0.260833 -0.555892 0.173188 
0.260844 -0.571029 0.016449 
0.260850 -0.571040 0.107885 
0.260852 -0.595032 -0.019840 
0.260863 -0.571069 0.088245 
0.260871 -0.571089 0.013709 
0.260885 -0.595105 -0.017005 
0.260894 -0.571137 0.010970 
0.260908 -0.571168 0.079893 
0.260911 -0.571175 0.008230 
0.260971 -0.595303 -0.002826 
0.260974 -0.595309 0.000010 
0.261035 -0.571445 0.068813 
0.261075 -0.595539 -0.031223 
0.261127 -0.595658 -0.028386 
0.261152 -0.556571 0.170507 
0.261157 -0.571713 0.066071 
0.261174 -0.595765 -0.025548 
0.261188 -0.571781 0.074411 
0.261242 -0.556763 0.173459 
0.261260 -0.571938 0.016475 
0.261274 -0.571970 0.063328 
0.261320 -0.572070 0.071667 
0.261320 -0.572071 0.080019 
0.261339 -0.572112 0.005499 
0.261386 -0.572216 0.060584 
0.261414 -0.572276 0.099658 
0.261463 -0.572383 0.077275 
0.261463 -0.572384 0.030236 
0.261465 -0.557239 0.167823 
0.261494 -0.572451 0.057839 
0.261495 -0.588299 -0.039366 
0.261561 -0.557443 0.170774 
0.261562 -0.588450 -0.036557 
0.261563 -0.572602 0.024743 
0.261575 -0.588478 0.002820 
0.261643 -0.572776 0.019249 
0.261774 -0.557897 0.165135 
0.261900 -0.589211 -0.039427 
0.261931 -0.573407 0.027533 
0.261968 -0.589363 -0.036613 
0.261971 -0.558315 0.171041 
0.262004 -0.558387 0.150939 
0.262020 -0.573604 0.022031 
0.262030 -0.589503 -0.033799 
0.262078 -0.558544 0.162445 
0.262184 -0.558771 0.165394 
0.262281 -0.558978 0.148247 
0.262285 -0.558986 0.168349 
0.262306 -0.590123 -0.039488 
0.262376 -0.559180 0.159751 
0.262469 -0.559377 0.174274 
0.262488 -0.559419 0.162699 
0.262670 -0.559806 0.157055 
0.262694 -0.559858 0.148480 
0.262711 -0.591035 -0.039549 
0.262779 -0.591187 -0.036727 
0.262842 -0.591328 -0.033903 
0.262899 -0.591458 -0.031079 
0.262926 -0.560351 0.137232 
0.262941 -0.599797 -0.011421 
0.262952 -0.591576 -0.028255 
0.262958 -0.560421 0.154355 
0.262959 -0.599837 -0.008563 
0.262967 -0.560439 0.145780 
0.262971 -0.575685 -0.011037 
0.262971 -0.599865 -0.005706 
0.262989 -0.575723 -0.008276 
0.262999 -0.591683 -0.025430 
0.263001 -0.575751 -0.005514 
0.263083 -0.560687 0.140152 
0.263105 -0.560733 0.168875 
0.263107 -0.560739 0.148714 
0.263178 -0.560888 0.134530 
0.263184 -0.592100 -0.036783 
0.263199 -0.560933 0.171843 
0.263225 -0.560989 0.073353 
0.263235 -0.561010 0.143078 
0.263250 -0.561043 0.128914 
0.263305 -0.592370 -0.031127 
0.263358 -0.561273 0.070648 
0.263381 -0.561321 0.146009 
0.263415 -0.561395 0.166171 
0.263424 -0.561414 0.131825 
0.263487 -0.561547 0.067942 
0.263487 -0.561547 0.126209 
0.263515 -0.561606 0.169138 
0.263655 -0.561905 0.151890 
0.263666 -0.561929 0.129118 
0.263671 -0.547314 0.174211 
0.263718 -0.562040 0.123501 
0.263721 -0.562045 0.163463 
0.263825 -0.562269 0.166429 
0.263903 -0.562434 0.126408 
0.263933 -0.562499 0.149180 
0.263945 -0.562523 0.120791 
0.263982 -0.602171 -0.025823 
0.263998 -0.547993 0.171559 
0.264021 -0.562686 0.160753 
0.264025 -0.602269 -0.022953 
0.264058 -0.594066 -0.034060 
0.264067 -0.562784 0.152128 
0.264132 -0.562921 0.163718 
0.264151 -0.562963 0.062627 
0.264186 -0.602636 0.000010 
0.264207 -0.563083 0.146468 
0.264265 -0.563205 0.059913 
0.264317 -0.563315 0.158039 
0.264373 -0.563436 0.057198 
0.264408 -0.556099 0.170774 
0.264455 -0.563610 0.065444 
0.264464 -0.594978 -0.034113 
0.264477 -0.563656 0.143753 
0.264477 -0.563657 0.054482 
0.264499 -0.556289 0.173731 
0.264550 -0.563813 0.101438 
0.264583 -0.563882 0.107038 
0.264607 -0.563934 0.155323 
0.264628 -0.563980 0.079262 
0.264739 -0.549531 0.169171 
0.264740 -0.564219 0.141035 
0.264773 -0.564288 0.076543 
0.264783 -0.556887 0.133893 
0.264840 -0.564432 0.043607 
0.264890 -0.564538 0.143978 
0.264919 -0.564598 0.040886 
0.264928 -0.596021 -0.031319 
0.264969 -0.564706 0.101598 
0.264981 -0.596140 -0.028473 
0.264992 -0.564755 0.038165 
0.264996 -0.564764 0.062827 
0.264999 -0.564769 0.051847 
0.265001 -0.564774 0.107207 
0.265032 -0.557410 0.131201 
0.265040 -0.564857 0.008178 
0.265052 -0.564883 0.005455 
0.265057 -0.550190 0.166507 
0.265060 -0.564900 0.035443 
0.265072 -0.596345 -0.022779 
0.265092 -0.564968 0.049125 
0.265123 -0.565035 0.032720 
0.265155 -0.565102 0.141255 
0.265155 -0.565102 0.098876 
0.265176 -0.565146 0.068378 
0.265181 -0.565157 0.046401 
0.265181 -0.565159 0.029996 
0.265195 -0.565189 0.121364 
0.265197 -0.565192 0.104484 
0.265218 -0.565237 0.110102 
0.265255 -0.565315 0.161504 
0.265275 -0.557921 0.128507 
0.265330 -0.565475 0.129933 
0.265333 -0.596934 -0.031367 
0.265336 -0.565487 0.096151 
0.265369 -0.550840 0.163841 
0.265385 -0.565592 0.124282 
0.265414 -0.565654 0.138530 
0.265418 -0.565663 0.118638 
0.265420 -0.565666 0.107377 
0.265447 -0.565724 -0.010898 
0.265465 -0.565762 -0.008171 
0.265477 -0.565789 -0.005444 
0.265502 -0.565842 0.132865 
0.265511 -0.565862 0.093425 
0.265552 -0.565948 0.158778 
0.265568 -0.565983 0.127206 
0.265575 -0.551267 0.169705 
0.265607 -0.551333 0.005350 
0.265615 -0.551349 0.002680 
0.265616 -0.566085 0.104649 
0.265635 -0.566126 0.115911 
0.265668 -0.606017 -0.020206 
0.265668 -0.566196 0.135803 
0.265669 -0.551461 0.172645 
0.265677 -0.551478 0.161172 
0.265682 -0.566225 0.090697 
0.265688 -0.566238 0.043747 
0.265718 -0.566301 0.153079 
0.265746 -0.566362 0.054743 
0.265776 -0.558975 0.117519 
0.265792 -0.597966 -0.028560 
0.265801 -0.566480 0.124477 
0.265808 -0.566493 0.101920 
0.265835 -0.566552 0.118825 
0.265840 -0.598075 -0.025705 
0.265844 -0.566570 0.156049 
0.265848 -0.566578 0.087967 
0.265848 -0.566578 0.113181 
0.265883 -0.598171 -0.022849 
0.265917 -0.566727 0.133073 
0.265921 -0.598257 -0.019992 
0.265931 -0.566757 0.093573 
0.265969 -0.559380 0.168875 
0.265980 -0.552107 0.158499 
0.265993 -0.559432 0.114817 
0.265994 -0.566890 0.099189 
0.266008 -0.566920 0.085235 
0.266053 -0.567016 0.116093 
0.266055 -0.567020 0.110449 
0.266087 -0.552329 0.172916 
0.266102 -0.567121 0.090840 
0.266175 -0.567277 0.096456 
0.266198 -0.598879 -0.028604 
0.266206 -0.559879 0.112114 
0.266207 -0.559881 0.137448 
0.266246 -0.567426 0.016423 
0.266246 -0.598988 -0.025744 
0.266253 -0.567442 0.119012 
0.266257 -0.567451 0.107716 
0.266266 -0.567469 0.113359 
0.266268 -0.567475 0.088106 
0.266273 -0.567486 0.013688 
0.266282 -0.560040 0.166171 
0.266296 -0.567534 0.010952 
0.266313 -0.567569 0.071441 
0.266333 -0.583044 0.002807 
0.266333 -0.583044 -0.002787 
0.266333 -0.567613 0.133281 
0.266335 -0.583049 0.000010 
0.266352 -0.567653 0.093720 
0.266379 -0.567711 0.060392 
0.266400 -0.552979 0.158750 
0.266412 -0.553003 0.170239 
0.266429 -0.567817 0.085370 
0.266446 -0.567855 0.121936 
0.266454 -0.567871 0.104980 
0.266459 -0.567882 0.077031 
0.266488 -0.567944 0.057655 
0.266517 -0.553221 0.161681 
0.266523 -0.568017 0.090984 
0.266567 -0.568112 0.065967 
0.266577 -0.568134 0.130544 
0.266585 -0.568149 0.082632 
0.266591 -0.560690 0.163463 
0.266592 -0.608125 -0.002887 
0.266593 -0.568166 0.054918 
0.266595 -0.568172 0.096608 
0.266599 -0.568181 0.074293 
0.266614 -0.568212 0.041148 
0.266652 -0.599901 -0.025783 
0.266684 -0.568360 0.113537 
0.266687 -0.568367 0.063228 
0.266688 -0.568369 0.038409 
0.266689 -0.568371 0.088245 
0.266692 -0.568377 0.052179 
0.266698 -0.553598 0.156070 
0.266717 -0.553636 0.113906 
0.266721 -0.568440 0.010970 
0.266732 -0.553667 0.167560 
0.266735 -0.568469 0.071554 
0.266735 -0.568470 0.079893 
0.266739 -0.568477 0.008230 
0.266751 -0.568505 0.005490 
0.266769 -0.561063 0.098406 
0.266786 -0.568578 0.049439 
0.266820 -0.568651 0.032929 
0.266833 -0.568679 0.099502 
0.266863 -0.568743 0.122127 
0.266865 -0.568746 0.068813 
0.266875 -0.568768 0.046698 
0.266888 -0.568796 0.116458 
0.266950 -0.561445 0.095695 
0.266959 -0.568947 0.043956 
0.266990 -0.569012 0.066071 
0.266991 -0.554206 0.153387 
0.267038 -0.569115 0.041214 
0.267046 -0.554320 0.164877 
0.267087 -0.569220 0.119385 
0.267127 -0.561817 0.092981 
0.267139 -0.600997 -0.020084 
0.267146 -0.569345 0.010987 
0.267156 -0.584846 0.005621 
0.267184 -0.569426 0.002754 
0.267192 -0.569443 0.094016 
0.267209 -0.569481 0.049517 
0.267224 -0.562020 0.149414 
0.267279 -0.554804 0.150702 
0.267299 -0.569671 0.046772 
0.267303 -0.569680 0.030236 
0.267306 -0.569686 0.116640 
0.267311 -0.562203 0.161003 
0.267333 -0.562251 0.065444 
0.267340 -0.554930 0.173731 
0.267356 -0.554963 0.162190 
0.267356 -0.569794 0.027490 
0.267375 -0.609911 -0.008707 
0.267388 -0.609939 -0.005801 
0.267405 -0.569897 0.024743 
0.267448 -0.569989 0.021996 
0.267454 -0.562503 0.062727 
0.267466 -0.562529 0.087549 
0.267485 -0.570067 0.102563 
0.267501 -0.562604 0.146697 
0.267507 -0.601824 -0.022988 
0.267520 -0.570142 0.113893 
0.267530 -0.570164 0.088524 
0.267539 -0.555344 0.156562 
0.267545 -0.601910 -0.020115 
0.267547 -0.570201 0.013753 
0.267562 -0.555391 0.148013 
0.267570 -0.570250 0.011005 
0.267579 -0.570268 0.071780 
0.267579 -0.585773 0.002820 
0.267610 -0.562832 0.158285 
0.267617 -0.562847 0.126807 
0.267622 -0.562858 0.141035 
0.267627 -0.562868 0.084831 
0.267666 -0.555607 0.171041 
0.267668 -0.570459 0.033034 
0.267692 -0.570508 0.085775 
0.267709 -0.570546 0.069031 
0.267727 -0.570584 0.030284 
0.267774 -0.563176 0.143978 
0.267833 -0.555954 0.153871 
0.267848 -0.570842 0.083024 
0.267852 -0.563342 0.124087 
0.267955 -0.571069 0.063529 
0.267979 -0.556257 0.120028 
0.268000 -0.571164 0.080272 
0.268062 -0.563783 0.068378 
0.268070 -0.571315 0.060776 
0.268082 -0.563825 0.121364 
0.268112 -0.556533 0.142628 
0.268122 -0.556554 0.151177 
0.268146 -0.571476 0.077518 
0.268175 -0.556663 0.122916 
0.268181 -0.556675 0.010795 
0.268199 -0.556712 0.008099 
0.268230 -0.571656 0.044166 
0.268231 -0.564138 0.040952 
0.268253 -0.587247 -0.042306 
0.268262 -0.556844 0.145551 
0.268277 -0.564235 0.101759 
0.268310 -0.571825 0.041410 
0.268317 -0.571841 0.140045 
0.268320 -0.564327 0.155807 
0.268335 -0.571880 0.019310 
0.268369 -0.571951 0.016554 
0.268384 -0.571983 0.038653 
0.268397 -0.572011 0.013797 
0.268397 -0.572012 -0.013777 
0.268405 -0.557141 0.120219 
0.268406 -0.557143 0.148480 
0.268423 -0.564543 0.060201 
0.268438 -0.572098 0.008282 
0.268450 -0.572126 0.005525 
0.268453 -0.572131 0.035896 
0.268508 -0.557355 0.081458 
0.268517 -0.572267 0.033138 
0.268517 -0.557373 0.073235 
0.268535 -0.557411 0.142853 
0.268549 -0.557440 0.128711 
0.268574 -0.572389 0.137288 
0.268603 -0.572451 0.058113 
0.268610 -0.564935 0.153079 
0.268624 -0.557595 0.106361 
0.268653 -0.557655 0.070535 
0.268660 -0.557669 0.078757 
0.268685 -0.557721 0.145780 
0.268708 -0.572675 0.055354 
0.268709 -0.557771 0.092538 
0.268742 -0.588318 -0.039549 
0.268764 -0.588367 -0.014104 
0.268784 -0.557927 0.067833 
0.268790 -0.557940 0.126010 
0.268803 -0.557967 0.140152 
0.268806 -0.557974 0.076056 
0.268811 -0.588469 -0.036727 
0.268821 -0.572916 0.013819 
0.268823 -0.558008 0.103659 
0.268825 -0.558013 0.168875 
0.268845 -0.572966 -0.011037 
0.268862 -0.573004 0.008296 
0.268863 -0.573004 -0.008276 
0.268875 -0.573031 0.005534 
0.268875 -0.573031 -0.005514 
0.268877 -0.573035 0.035953 
0.268881 -0.558129 0.089836 
0.268888 -0.604932 0.000010 
0.268910 -0.558188 0.065131 
0.268921 -0.558212 0.160252 
0.268925 -0.565599 0.030092 
0.268951 -0.565652 0.110449 
0.268958 -0.558289 0.143078 
0.268961 -0.565674 0.057564 
0.268965 -0.558304 0.151652 
0.268988 -0.588856 -0.028255 
0.268999 -0.565753 0.090840 
0.269000 -0.573297 0.030428 
0.269017 -0.558410 0.100956 
0.269025 -0.558428 0.013535 
0.269026 -0.558430 0.123306 
0.269049 -0.558477 0.087132 
0.269054 -0.573411 0.027664 
0.269065 -0.558511 0.112114 
0.269066 -0.558513 0.137448 
0.269103 -0.573515 0.024900 
0.269107 -0.558598 0.146009 
0.269112 -0.573534 0.083416 
0.269143 -0.558671 0.166171 
0.269146 -0.573608 0.022136 
0.269152 -0.589215 -0.016952 
0.269155 -0.566082 0.107716 
0.269185 -0.573690 0.019371 
0.269203 -0.605639 -0.017345 
0.269205 -0.558802 0.098250 
0.269211 -0.558814 0.084426 
0.269213 -0.566203 0.079767 
0.269218 -0.573761 0.016606 
0.269222 -0.558837 0.157547 
0.269227 -0.558846 0.140373 
0.269250 -0.558895 0.148947 
0.269262 -0.566306 0.049360 
0.269275 -0.558946 0.109408 
0.269313 -0.614332 -0.017554 
0.269324 -0.559048 0.134742 
0.269330 -0.551826 0.173188 
0.269341 -0.614396 -0.014627 
0.269352 -0.566495 0.046624 
0.269354 -0.566501 0.104980 
0.269359 -0.566512 0.077031 
0.269364 -0.614448 -0.011700 
0.269379 -0.559162 0.073470 
0.269389 -0.559183 0.095543 
0.269399 -0.559204 0.129118 
0.269408 -0.566615 0.027403 
0.269436 -0.566674 0.043886 
0.269455 -0.559319 0.163463 
0.269457 -0.566717 0.024665 
0.269467 -0.545018 0.157247 
0.269492 -0.559397 0.112292 
0.269501 -0.566809 0.021927 
0.269501 -0.566810 0.074293 
0.269515 -0.559446 0.070761 
0.269518 -0.559451 0.154839 
0.269521 -0.559457 0.079010 
0.269534 -0.590051 -0.019809 
0.269576 -0.559572 0.132033 
0.269591 -0.566998 0.038409 
0.269638 -0.567098 0.071554 
0.269641 -0.559706 0.126408 
0.269647 -0.559718 0.068051 
0.269659 -0.552500 0.170507 
0.269668 -0.559762 0.076300 
0.269748 -0.559928 0.134954 
0.269762 -0.559956 0.160753 
0.269768 -0.545628 0.154593 
0.269773 -0.559980 0.065340 
0.269824 -0.560086 0.129322 
0.269873 -0.560189 0.101277 
0.269878 -0.560198 0.123696 
0.269887 -0.560217 0.038043 
0.269907 -0.560259 0.106869 
0.269912 -0.567674 0.082763 
0.269913 -0.560272 0.137881 
0.269951 -0.575325 0.024979 
0.269954 -0.575330 0.083677 
0.269982 -0.553163 0.167823 
0.269995 -0.575418 0.022206 
0.270001 -0.560453 0.132241 
0.270034 -0.575500 0.019432 
0.270053 -0.567971 0.010987 
0.270063 -0.560581 0.098563 
0.270064 -0.560583 0.158039 
0.270064 -0.546228 0.151936 
0.270071 -0.568009 0.008243 
0.270072 -0.560600 0.084696 
0.270073 -0.560603 0.140814 
0.270078 -0.575595 0.052841 
0.270080 -0.560617 0.029900 
0.270084 -0.568036 0.005499 
0.270092 -0.568053 0.002754 
0.270106 -0.575655 0.080903 
0.270107 -0.607674 0.000010 
0.270107 -0.560674 0.104154 
0.270109 -0.560678 0.120982 
0.270134 -0.560730 0.027185 
0.270185 -0.553579 0.116960 
0.270205 -0.560877 0.065444 
0.270229 -0.560927 0.081980 
0.270249 -0.560968 0.129525 
0.270252 -0.553716 0.145093 
0.270301 -0.553816 0.165135 
0.270302 -0.561078 0.101438 
0.270303 -0.561081 0.123891 
0.270326 -0.561128 0.062727 
0.270327 -0.576125 0.027795 
0.270336 -0.561149 0.118265 
0.270337 -0.561151 0.138098 
0.270338 -0.561154 0.087549 
0.270360 -0.561199 0.155323 
0.270390 -0.561260 0.035386 
0.270398 -0.568696 0.019249 
0.270407 -0.554032 0.114271 
0.270431 -0.568766 0.016501 
0.270442 -0.561370 0.060009 
0.270460 -0.568826 0.013753 
0.270492 -0.561472 0.126807 
0.270511 -0.608582 -0.002896 
0.270517 -0.568947 0.035783 
0.270527 -0.554279 0.142403 
0.270535 -0.592243 -0.034113 
0.270557 -0.561608 0.115546 
0.270582 -0.569083 0.033034 
0.270582 -0.576669 0.002789 
0.270582 -0.576669 -0.002769 
0.270585 -0.576674 0.000010 
0.270594 -0.592372 -0.031271 
0.270599 -0.561694 0.043607 
0.270617 -0.561731 0.024508 
0.270634 -0.554498 0.136799 
0.270661 -0.561822 0.021787 
0.270679 -0.561860 0.040886 
0.270699 -0.561903 0.019066 
0.270733 -0.561972 0.016344 
0.270753 -0.562015 0.038165 
0.270761 -0.562031 0.138314 
0.270761 -0.562031 0.013622 
0.270774 -0.562057 0.112825 
0.270784 -0.562079 0.010900 
0.270797 -0.554832 0.139710 
0.270802 -0.562117 0.008178 
0.270813 -0.562138 0.079389 
0.270815 -0.562144 0.005455 
0.270823 -0.562160 0.002733 
0.270823 -0.562160 0.035443 
0.270856 -0.562228 0.049125 
0.270874 -0.562266 0.060105 
0.270888 -0.562294 0.032720 
0.270917 -0.609495 -0.002900 
0.270919 -0.609501 0.000010 
0.270923 -0.555090 0.159751 
0.270941 -0.562405 0.068378 
0.270946 -0.562415 0.046401 
0.270984 -0.562494 0.115729 
0.270986 -0.562497 0.057381 
0.271031 -0.562593 0.043677 
0.271075 -0.593426 -0.045610 
0.271092 -0.562717 0.054656 
0.271193 -0.562927 0.051930 
0.271201 -0.562944 0.113003 
0.271219 -0.562983 0.147156 
0.271226 -0.555711 0.157055 
0.271251 -0.555763 0.148480 
0.271315 -0.610392 -0.005819 
0.271321 -0.563194 0.032772 
0.271381 -0.563317 0.030044 
0.271388 -0.563331 0.121554 
0.271412 -0.563382 0.110276 
0.271418 -0.563395 0.057473 
0.271432 -0.578479 0.002798 
0.271432 -0.578479 -0.002778 
0.271434 -0.578485 0.000010 
0.271435 -0.563430 0.027315 
0.271484 -0.563532 0.024586 
0.271524 -0.563615 0.054743 
0.271527 -0.594416 -0.025666 
0.271528 -0.563623 0.021857 
0.271567 -0.563704 0.019127 
0.271570 -0.594509 -0.042829 
0.271571 -0.594512 -0.022814 
0.271587 -0.563745 0.101920 
0.271600 -0.563773 0.016397 
0.271605 -0.611044 -0.020420 
0.271615 -0.563804 0.118825 
0.271618 -0.563811 0.107546 
0.271625 -0.563825 0.052013 
0.271629 -0.563832 0.013666 
0.271639 -0.611120 -0.017502 
0.271645 -0.594673 -0.039976 
0.271652 -0.563881 0.010935 
0.271670 -0.563918 0.008204 
0.271715 -0.594826 -0.037123 
0.271721 -0.564024 0.049282 
0.271732 -0.549599 0.161426 
0.271750 -0.556785 0.134530 
0.271777 -0.564141 0.099189 
0.271811 -0.556910 0.095391 
0.271812 -0.564212 0.046550 
0.271840 -0.564270 0.110449 
0.271893 -0.595217 -0.028560 
0.271901 -0.557094 0.087132 
0.271943 -0.595325 -0.025705 
0.271963 -0.564525 0.096456 
0.271978 -0.564557 0.041083 
0.271991 -0.557279 0.092686 
0.272046 -0.564698 0.107716 
0.272053 -0.564713 0.038348 
0.272059 -0.557418 0.098250 
0.272065 -0.557431 0.084426 
0.272078 -0.550300 0.150226 
0.272112 -0.557526 0.120600 
0.272123 -0.564858 0.035613 
0.272135 -0.612237 -0.002913 
0.272143 -0.564899 0.093720 
0.272166 -0.557637 0.089979 
0.272273 -0.550695 0.164618 
0.272318 -0.565262 0.090984 
0.272375 -0.558065 0.154839 
0.272380 -0.550910 0.167560 
0.272389 -0.565410 0.054918 
0.272392 -0.565416 0.096608 
0.272396 -0.565424 0.021927 
0.272434 -0.558186 0.132033 
0.272434 -0.565504 0.019188 
0.272468 -0.565575 0.016449 
0.272479 -0.613011 -0.014627 
0.272480 -0.551113 0.170507 
0.272487 -0.565614 0.088245 
0.272489 -0.573093 0.055528 
0.272490 -0.565620 0.052179 
0.272497 -0.565634 0.013709 
0.272503 -0.613063 -0.011700 
0.272520 -0.565682 0.010970 
0.272550 -0.551254 0.122331 
0.272551 -0.565747 0.005490 
0.272559 -0.565763 0.002750 
0.272572 -0.565790 0.093868 
0.272587 -0.565820 0.049439 
0.272589 -0.551333 0.161936 
0.272590 -0.573307 0.052759 
0.272609 -0.596784 -0.034374 
0.272621 -0.565893 0.032929 
0.272652 -0.565956 0.085505 
0.272659 -0.558647 0.081849 
0.272669 -0.558667 0.152128 
0.272669 -0.596915 -0.031511 
0.272678 -0.566009 0.046698 
0.272681 -0.566017 0.030188 
0.272683 -0.566021 0.077153 
0.272701 -0.551560 0.164877 
0.272705 -0.544543 0.168903 
0.272715 -0.566086 0.057747 
0.272745 -0.551649 0.125212 
0.272747 -0.566154 0.091127 
0.272781 -0.558897 0.112469 
0.272784 -0.551727 0.119646 
0.272813 -0.558963 0.079136 
0.272817 -0.597239 -0.022919 
0.272821 -0.566307 0.055005 
0.272827 -0.566319 0.074411 
0.272853 -0.559044 0.048968 
0.272885 -0.613924 -0.014649 
0.272899 -0.551961 0.159250 
0.272917 -0.566507 0.088384 
0.272923 -0.566518 0.052262 
0.272929 -0.559201 0.126608 
0.272940 -0.614047 -0.005854 
0.272962 -0.559268 0.076421 
0.272965 -0.566606 0.071667 
0.272972 -0.566621 0.008243 
0.273001 -0.552167 0.173731 
0.273019 -0.566718 0.049517 
0.273033 -0.552231 0.136582 
0.273033 -0.545197 0.166244 
0.273082 -0.566848 0.085640 
0.273114 -0.566916 0.077275 
0.273117 -0.552402 0.130993 
0.273131 -0.582100 0.002816 
0.273159 -0.559672 0.163972 
0.273169 -0.559692 0.123891 
0.273196 -0.567086 0.044026 
0.273205 -0.552579 0.156562 
0.273216 -0.559789 0.010883 
0.273228 -0.552625 0.148013 
0.273234 -0.559826 0.008164 
0.273235 -0.545600 0.172102 
0.273241 -0.567180 0.082893 
0.273258 -0.567214 0.074528 
0.273263 -0.614773 -0.017607 
0.273294 -0.552760 0.133893 
0.273302 -0.567305 0.019249 
0.273315 -0.614890 -0.011735 
0.273333 -0.614931 -0.008799 
0.273336 -0.567376 0.016501 
0.273353 -0.567411 0.038531 
0.273355 -0.545840 0.163582 
0.273396 -0.567500 0.080146 
0.273419 -0.567549 0.005508 
0.273488 -0.567692 0.033034 
0.273505 -0.553186 0.153871 
0.273511 -0.553199 0.145322 
0.273551 -0.553279 0.131201 
0.273558 -0.583011 0.000010 
0.273568 -0.546266 0.169438 
0.273593 -0.553363 0.097781 
0.273631 -0.553440 0.139710 
0.273641 -0.553462 0.103329 
0.273662 -0.553505 0.168349 
0.273710 -0.568153 0.041344 
0.273746 -0.560874 0.060105 
0.273761 -0.553705 0.171309 
0.273779 -0.553741 0.095086 
0.273790 -0.553762 0.142628 
0.273838 -0.553860 0.100634 
0.273858 -0.561104 0.057381 
0.273883 -0.553951 0.117333 
0.273897 -0.546922 0.166770 
0.273960 -0.554107 0.092390 
0.273965 -0.561324 0.054656 
0.273973 -0.561338 0.129933 
0.273977 -0.561347 0.073940 
0.273982 -0.568716 0.030332 
0.274036 -0.568830 0.027577 
0.274086 -0.568933 0.024822 
0.274090 -0.568940 0.066385 
0.274104 -0.616665 -0.014714 
0.274108 -0.554405 0.114635 
0.274116 -0.561632 0.071214 
0.274131 -0.569025 0.022066 
0.274145 -0.616759 -0.008825 
0.274158 -0.616788 -0.005880 
0.274161 -0.554512 0.134317 
0.274166 -0.616806 -0.002935 
0.274203 -0.554597 0.073235 
0.274220 -0.547568 0.164100 
0.274236 -0.554664 0.128711 
0.274249 -0.561905 0.068487 
0.274259 -0.569292 0.072007 
0.274308 -0.547743 0.147079 
0.274327 -0.554848 0.111936 
0.274331 -0.569441 0.060872 
0.274342 -0.554879 0.070535 
0.274349 -0.554893 0.078757 
0.274378 -0.562169 0.065758 
0.274393 -0.569569 0.069249 
0.274480 -0.562377 0.016397 
0.274481 -0.548088 0.005359 
0.274481 -0.617514 -0.017685 
0.274482 -0.555162 0.126010 
0.274489 -0.548104 0.002684 
0.274498 -0.555196 0.076056 
0.274501 -0.562421 0.063028 
0.274508 -0.562436 0.013666 
0.274510 -0.617579 -0.014736 
0.274533 -0.617631 -0.011787 
0.274538 -0.548203 0.161426 
0.274540 -0.555281 0.109234 
0.274593 -0.548312 0.144405 
0.274643 -0.555488 0.073353 
0.274645 -0.570092 0.063729 
0.274661 -0.555524 0.151652 
0.274665 -0.585371 -0.022570 
0.274670 -0.555542 0.128914 
0.274704 -0.585454 -0.019748 
0.274721 -0.562872 0.110449 
0.274723 -0.555650 0.123306 
0.274738 -0.585527 -0.016926 
0.274749 -0.555703 0.106530 
0.274767 -0.585588 -0.014104 
0.274782 -0.555769 0.070648 
0.274851 -0.548827 0.158750 
0.274884 -0.563206 0.019157 
0.274916 -0.556040 0.067942 
0.274930 -0.563300 0.107716 
0.274952 -0.556114 0.103824 
0.274959 -0.556127 0.120600 
0.275002 -0.563447 0.005481 
0.275026 -0.549178 0.153145 
0.275045 -0.556301 0.065235 
0.275073 -0.556357 0.081719 
0.275133 -0.563717 0.104980 
0.275158 -0.549442 0.156070 
0.275168 -0.556551 0.062527 
0.275189 -0.556593 0.117892 
0.275220 -0.556655 0.005429 
0.275228 -0.556671 0.002719 
0.275230 -0.556676 0.035272 
0.275284 -0.549693 0.159000 
0.275287 -0.556790 0.059817 
0.275296 -0.556809 0.032563 
0.275323 -0.549770 0.150464 
0.275332 -0.564123 0.102242 
0.275356 -0.556931 0.029852 
0.275382 -0.556983 0.149180 
0.275415 -0.557049 0.115182 
0.275470 -0.587085 -0.025469 
0.275486 -0.557192 0.065340 
0.275517 -0.557256 0.143528 
0.275588 -0.557400 0.101277 
0.275593 -0.550308 0.156316 
0.275609 -0.557443 0.062627 
0.275624 -0.557472 0.087410 
0.275668 -0.557562 0.146468 
0.275752 -0.620372 -0.011839 
0.275763 -0.603688 -0.020267 
0.275790 -0.557809 0.084696 
0.275821 -0.550764 0.173731 
0.275832 -0.550787 0.116960 
0.275841 -0.557911 0.057198 
0.275853 -0.550828 0.136582 
0.275889 -0.603964 -0.002887 
0.275892 -0.603970 0.000010 
0.275952 -0.558134 0.081980 
0.276026 -0.551173 0.103164 
0.276044 -0.558322 0.038104 
0.276058 -0.551238 0.114271 
0.276060 -0.558353 0.107038 
0.276062 -0.558357 0.138098 
0.276075 -0.558384 0.010883 
0.276093 -0.558422 0.008164 
0.276176 -0.621327 -0.008890 
0.276224 -0.558686 0.141035 
0.276225 -0.551570 0.100473 
0.276253 -0.566011 0.052344 
0.276279 -0.551678 0.111580 
0.276329 -0.558899 0.090410 
0.276330 -0.551780 0.153871 
0.276376 -0.551873 0.131201 
0.276418 -0.551957 0.097781 
0.276443 -0.566400 0.046846 
0.276466 -0.589208 -0.014191 
0.276480 -0.552081 0.120028 
0.276485 -0.552091 0.148247 
0.276490 -0.589259 -0.011351 
0.276494 -0.552109 0.108887 
0.276507 -0.559259 0.112825 
0.276508 -0.589298 -0.008511 
0.276518 -0.559281 0.010900 
0.276530 -0.566578 0.044096 
0.276590 -0.559427 0.093277 
0.276598 -0.566718 0.022031 
0.276607 -0.552333 0.095086 
0.276612 -0.566746 0.041344 
0.276618 -0.552355 0.142628 
0.276628 -0.552375 0.151177 
0.276630 -0.552379 0.128507 
0.276657 -0.559561 0.098876 
0.276684 -0.559615 0.046401 
0.276688 -0.566902 0.038592 
0.276704 -0.552528 0.106191 
0.276706 -0.552532 0.008099 
0.276723 -0.559695 0.110102 
0.276764 -0.567058 0.002763 
0.276771 -0.559791 0.043677 
0.276790 -0.552699 0.092390 
0.276825 -0.567183 0.033086 
