# .PCD v.7 - Point Cloud Data file format
VERSION .7
FIELDS x y z
SIZE 4 4 4
TYPE F F F
COUNT 1 1 1
WIDTH 1594
HEIGHT 1
POINTS 1594
DATA ascii
-0.251977 0.305758 0.341393 
-0.251972 0.322192 0.253108 
-0.251971 0.305751 0.350525 
-0.251952 0.339718 0.147701 
-0.251948 0.325579 0.232916 
-0.251945 0.305719 0.353582 
-0.251940 0.299420 0.387911 
-0.251924 0.336074 0.182627 
-0.251920 0.305689 0.335338 
-0.251919 0.305687 0.385877 
-0.251918 0.296306 0.409836 
-0.251911 0.296297 0.388908 
-0.251898 0.332485 0.179213 
-0.251889 0.293220 0.403801 
-0.251880 0.305640 0.375841 
-0.251879 0.322073 0.245673 
-0.251863 0.328930 0.213369 
-0.251855 0.325458 0.235206 
-0.251843 0.332412 0.203404 
-0.251842 0.290150 0.415625 
-0.251833 0.332398 0.201148 
-0.251831 0.315314 0.298600 
-0.251830 0.308783 0.340310 
-0.251826 0.343202 0.154935 
-0.251816 0.293135 0.410800 
-0.251816 0.332375 0.198896 
-0.251811 0.321987 0.255421 
-0.251810 0.321985 0.286214 
-0.251809 0.335921 0.167491 
-0.251794 0.305535 0.362791 
-0.251791 0.332343 0.196648 
-0.251785 0.302361 0.366914 
-0.251771 0.328810 0.236695 
-0.251757 0.335853 0.206991 
-0.251756 0.332296 0.217022 
-0.251751 0.335844 0.202451 
-0.251748 0.339442 0.168603 
-0.251730 0.296085 0.405968 
-0.251721 0.296074 0.392021 
-0.251717 0.315170 0.290372 
-0.251694 0.308616 0.361733 
-0.251685 0.335756 0.216116 
-0.251682 0.292979 0.417828 
-0.251679 0.325231 0.282636 
-0.251636 0.315068 0.295654 
-0.251622 0.315051 0.323602 
-0.251566 0.339197 0.149545 
-0.251563 0.332043 0.185472 
-0.251556 0.328529 0.241307 
-0.251550 0.321653 0.278025 
-0.251526 0.295844 0.402110 
-0.251499 0.321587 0.272784 
-0.251480 0.321564 0.293877 
-0.251471 0.305143 0.352916 
-0.251463 0.305134 0.385179 
-0.251443 0.335434 0.184458 
-0.251439 0.292696 0.403078 
-0.251434 0.305099 0.355977 
-0.251414 0.314791 0.317595 
-0.251372 0.292618 0.420984 
-0.251351 0.298721 0.404268 
-0.251332 0.338882 0.135054 
-0.251330 0.314686 0.298006 
-0.251307 0.338848 0.170446 
-0.251305 0.331701 0.205222 
-0.251303 0.298663 0.390322 
-0.251301 0.331696 0.202965 
-0.251294 0.328188 0.215174 
-0.251290 0.317956 0.268241 
-0.251289 0.331680 0.200713 
-0.251289 0.321319 0.254891 
-0.251284 0.321313 0.262372 
-0.251277 0.308104 0.333606 
-0.251274 0.321299 0.275122 
-0.251271 0.331656 0.198465 
-0.251252 0.304877 0.365194 
-0.251226 0.308042 0.361060 
-0.251224 0.324644 0.237000 
-0.251219 0.335134 0.204281 
-0.251216 0.321226 0.247454 
-0.251213 0.335127 0.208820 
-0.251186 0.338686 0.139044 
-0.251186 0.321188 0.296243 
-0.251181 0.331538 0.218838 
-0.251175 0.338670 0.151386 
-0.251166 0.304773 0.368278 
-0.251156 0.307957 0.327580 
-0.251141 0.317768 0.275774 
-0.251141 0.327987 0.238500 
-0.251131 0.335017 0.156542 
-0.251122 0.321106 0.257202 
-0.251119 0.301561 0.372399 
-0.251117 0.334999 0.217945 
-0.251077 0.317687 0.270562 
-0.251075 0.334943 0.220235 
-0.251073 0.338533 0.198781 
-0.251049 0.292242 0.424144 
-0.251029 0.304607 0.346156 
-0.251027 0.304605 0.343118 
-0.251026 0.295257 0.408385 
-0.251026 0.334877 0.222529 
-0.251019 0.304595 0.349200 
-0.251016 0.314293 0.308641 
-0.251015 0.334862 0.188520 
-0.251001 0.301420 0.375491 
-0.250996 0.304567 0.352251 
-0.250994 0.301411 0.359413 
-0.250979 0.338406 0.136894 
-0.250962 0.304526 0.355308 
-0.250958 0.334786 0.186285 
-0.250948 0.320883 0.259515 
-0.250944 0.331225 0.182847 
-0.250924 0.314177 0.292129 
-0.250922 0.324253 0.284428 
-0.250915 0.304469 0.358371 
-0.250913 0.327690 0.243111 
-0.250898 0.307639 0.345086 
-0.250894 0.334701 0.184055 
-0.250889 0.307629 0.342045 
-0.250862 0.338248 0.172285 
-0.250856 0.304397 0.361440 
-0.250835 0.304372 0.377565 
-0.250800 0.320694 0.279804 
-0.250785 0.304310 0.364515 
-0.250779 0.338136 0.153225 
-0.250766 0.320651 0.261831 
-0.250762 0.330985 0.207035 
-0.250758 0.301128 0.368628 
-0.250758 0.294940 0.411529 
-0.250737 0.330952 0.211559 
-0.250721 0.327439 0.216976 
-0.250664 0.334395 0.210646 
-0.250656 0.327354 0.247733 
-0.250651 0.288778 0.417298 
-0.250651 0.317148 0.285686 
-0.250629 0.313808 0.294472 
-0.250602 0.330774 0.220651 
-0.250601 0.320440 0.256668 
-0.250589 0.323823 0.238788 
-0.250577 0.320408 0.264149 
-0.250554 0.337833 0.200618 
-0.250547 0.313706 0.319349 
-0.250519 0.334201 0.190344 
-0.250516 0.313667 0.299760 
-0.250507 0.341404 0.133513 
-0.250492 0.291593 0.419510 
-0.250460 0.330586 0.184658 
-0.250454 0.297654 0.395853 
-0.250444 0.303897 0.357698 
-0.250441 0.341315 0.166758 
-0.250429 0.320219 0.258978 
-0.250408 0.323589 0.278588 
-0.250393 0.316821 0.277539 
-0.250392 0.303834 0.386901 
-0.250387 0.303828 0.360764 
-0.250387 0.294504 0.403801 
-0.250380 0.334016 0.250823 
-0.250378 0.337596 0.155060 
-0.250354 0.306973 0.335338 
-0.250343 0.316758 0.272326 
-0.250325 0.344840 0.144647 
-0.250321 0.323476 0.253108 
-0.250318 0.303744 0.363836 
-0.250309 0.333921 0.228950 
-0.250275 0.323416 0.268115 
-0.250266 0.326845 0.244909 
-0.250261 0.323398 0.233718 
-0.250236 0.303644 0.366914 
-0.250229 0.323357 0.245673 
-0.250228 0.306818 0.362791 
-0.250221 0.330271 0.206589 
-0.250214 0.330261 0.208845 
-0.250213 0.297368 0.405968 
-0.250199 0.330242 0.211105 
-0.250174 0.313238 0.310393 
-0.250173 0.291222 0.422664 
-0.250158 0.333719 0.158013 
-0.250142 0.303530 0.369998 
-0.250140 0.333695 0.207928 
-0.250111 0.333656 0.212467 
-0.250093 0.323182 0.247973 
-0.250088 0.333626 0.196648 
-0.250066 0.303439 0.347875 
-0.250060 0.319748 0.263605 
-0.250057 0.333584 0.194404 
-0.250053 0.333579 0.217022 
-0.250046 0.319730 0.281578 
-0.250019 0.333533 0.192164 
-0.250016 0.313041 0.299162 
-0.250009 0.340725 0.168603 
-0.249997 0.326493 0.249529 
-0.249973 0.333473 0.189929 
-0.249973 0.337049 0.156892 
-0.249962 0.323012 0.265239 
-0.249952 0.344326 0.146505 
-0.249951 0.322998 0.250276 
-0.249951 0.300158 0.377199 
-0.249949 0.322996 0.240573 
-0.249944 0.306470 0.343774 
-0.249944 0.306470 0.346815 
-0.249939 0.303284 0.386200 
-0.249896 0.329841 0.227026 
-0.249891 0.319531 0.297428 
-0.249878 0.344224 0.134114 
-0.249875 0.316167 0.287447 
-0.249870 0.293896 0.410072 
-0.249867 0.312855 0.304462 
-0.249864 0.319497 0.265922 
-0.249852 0.333311 0.226173 
-0.249825 0.312801 0.296221 
-0.249820 0.322829 0.260053 
-0.249789 0.296864 0.398263 
-0.249785 0.303098 0.379283 
-0.249772 0.299944 0.390322 
-0.249768 0.312731 0.324099 
-0.249763 0.322755 0.267567 
-0.249751 0.296818 0.391311 
-0.249740 0.344033 0.138130 
-0.249735 0.290712 0.421923 
-0.249725 0.336715 0.184458 
-0.249722 0.333137 0.252642 
-0.249708 0.333118 0.230769 
-0.249697 0.312642 0.301509 
-0.249680 0.329557 0.203895 
-0.249675 0.329550 0.208395 
-0.249661 0.299810 0.383396 
-0.249642 0.322599 0.254891 
-0.249640 0.315868 0.279298 
-0.249638 0.322594 0.262372 
-0.249627 0.322580 0.275122 
-0.249607 0.299746 0.400412 
-0.249596 0.340163 0.135054 
-0.249590 0.302861 0.347212 
-0.249581 0.299714 0.393442 
-0.249579 0.343812 0.142152 
-0.249574 0.343805 0.148360 
-0.249574 0.302841 0.372399 
-0.249571 0.332936 0.198465 
-0.249571 0.340129 0.170446 
-0.249570 0.312483 0.318104 
-0.249570 0.287533 0.422848 
-0.249563 0.336496 0.158722 
-0.249556 0.322488 0.269897 
-0.249552 0.332911 0.214285 
-0.249544 0.302805 0.353300 
-0.249532 0.343747 0.135969 
-0.249514 0.296536 0.408385 
-0.249513 0.319049 0.275774 
-0.249483 0.332818 0.218838 
-0.249477 0.322386 0.257202 
-0.249455 0.287400 0.418962 
-0.249454 0.312337 0.315118 
-0.249449 0.302690 0.359413 
-0.249429 0.322323 0.249754 
-0.249407 0.339905 0.178954 
-0.249405 0.290328 0.425078 
-0.249389 0.315552 0.281625 
-0.249385 0.332687 0.223407 
-0.249384 0.343542 0.139984 
-0.249371 0.312233 0.303857 
-0.249342 0.322211 0.272229 
-0.249333 0.325625 0.251321 
-0.249326 0.312177 0.312140 
-0.249321 0.339788 0.176727 
-0.249311 0.336157 0.173355 
-0.249306 0.302516 0.365550 
-0.249304 0.322162 0.242353 
-0.249295 0.329049 0.228830 
-0.249280 0.322131 0.252056 
-0.249246 0.296219 0.411529 
-0.249245 0.339685 0.136894 
-0.249243 0.293159 0.405483 
-0.249225 0.305589 0.364515 
-0.249199 0.312018 0.300907 
-0.249187 0.312002 0.309169 
-0.249186 0.302370 0.381690 
-0.249157 0.321972 0.279804 
-0.249150 0.293050 0.412482 
-0.249147 0.318580 0.267689 
-0.249129 0.339526 0.172285 
-0.249120 0.321924 0.274563 
-0.249112 0.302282 0.371711 
-0.249104 0.321904 0.235000 
-0.249095 0.315180 0.289203 
-0.249089 0.318506 0.299195 
-0.249086 0.302250 0.337476 
-0.249077 0.328761 0.214713 
-0.249062 0.332257 0.202527 
-0.249058 0.332252 0.254456 
-0.249050 0.332240 0.200279 
-0.249046 0.321829 0.269345 
-0.249044 0.328717 0.216976 
-0.249036 0.311814 0.306206 
-0.249031 0.302183 0.384798 
-0.249026 0.318425 0.285686 
-0.249022 0.343045 0.141835 
-0.249012 0.332191 0.234886 
-0.249003 0.321773 0.237277 
-0.248998 0.302142 0.374799 
-0.248993 0.305304 0.345496 
-0.248985 0.305294 0.348537 
-0.248980 0.302121 0.358738 
-0.248955 0.328599 0.221513 
-0.248943 0.339272 0.180792 
-0.248935 0.321685 0.264149 
-0.248908 0.332051 0.220651 
-0.248895 0.298891 0.378899 
-0.248890 0.339200 0.138731 
-0.248883 0.311623 0.325842 
-0.248879 0.286737 0.414349 
-0.248874 0.311611 0.303252 
-0.248858 0.335546 0.175180 
-0.248840 0.301951 0.364868 
-0.248833 0.321553 0.271673 
-0.248798 0.311516 0.322841 
-0.248793 0.305059 0.327392 
-0.248770 0.318098 0.277539 
-0.248758 0.342680 0.133513 
-0.248756 0.335409 0.188109 
-0.248734 0.301823 0.397993 
-0.248730 0.301818 0.380993 
-0.248720 0.318034 0.272326 
-0.248702 0.311395 0.319846 
-0.248693 0.311385 0.308557 
-0.248690 0.328250 0.230629 
-0.248682 0.338917 0.174121 
-0.248664 0.324752 0.253108 
-0.248655 0.321323 0.244128 
-0.248631 0.311306 0.337276 
-0.248624 0.301689 0.348921 
-0.248623 0.342494 0.137512 
-0.248609 0.321263 0.261290 
-0.248605 0.328138 0.232916 
-0.248605 0.321258 0.253831 
-0.248588 0.298521 0.385095 
-0.248578 0.331611 0.232095 
-0.248563 0.335148 0.181430 
-0.248561 0.301613 0.355009 
-0.248541 0.311194 0.305598 
-0.248538 0.301585 0.374108 
-0.248533 0.289313 0.423592 
-0.248530 0.331547 0.204337 
-0.248527 0.317788 0.279868 
-0.248523 0.331538 0.202089 
-0.248480 0.298393 0.395140 
-0.248474 0.311110 0.313880 
-0.248474 0.338633 0.182627 
-0.248470 0.327959 0.218773 
-0.248465 0.342277 0.141517 
-0.248465 0.342277 0.147701 
-0.248425 0.317657 0.269451 
-0.248413 0.342206 0.135359 
-0.248413 0.301433 0.387207 
-0.248412 0.342204 0.153909 
-0.248401 0.334931 0.212467 
-0.248395 0.331367 0.236695 
-0.248385 0.320974 0.276337 
-0.248369 0.327826 0.223310 
-0.248364 0.304533 0.360089 
-0.248342 0.310945 0.310908 
-0.248336 0.331289 0.188685 
-0.248328 0.331278 0.222460 
-0.248307 0.327745 0.225583 
-0.248304 0.334799 0.164192 
-0.248290 0.317484 0.320594 
-0.248289 0.301282 0.367257 
-0.248282 0.317474 0.300957 
-0.248272 0.320828 0.258441 
-0.248268 0.342005 0.139358 
-0.248267 0.292011 0.411020 
-0.248265 0.334747 0.189929 
-0.248227 0.320771 0.265922 
-0.248218 0.304353 0.366232 
-0.248215 0.304350 0.389319 
-0.248185 0.310748 0.339661 
-0.248164 0.341862 0.157943 
-0.248155 0.320677 0.283920 
-0.248126 0.304241 0.369313 
-0.248126 0.301084 0.351293 
-0.248113 0.338141 0.163097 
-0.248100 0.341774 0.143362 
-0.248095 0.313914 0.301509 
-0.248095 0.291808 0.407158 
-0.248088 0.294842 0.413214 
-0.248078 0.313893 0.309781 
-0.248073 0.327435 0.244398 
-0.248071 0.301018 0.400412 
-0.248015 0.341657 0.155752 
-0.248001 0.320478 0.245898 
-0.248000 0.337987 0.184458 
-0.247994 0.310509 0.327580 
-0.247992 0.330829 0.203895 
-0.247990 0.323872 0.254891 
-0.247989 0.327325 0.234710 
-0.247985 0.323866 0.262372 
-0.247982 0.300910 0.360442 
-0.247982 0.291676 0.414157 
-0.247968 0.330798 0.233901 
-0.247961 0.300885 0.386503 
-0.247955 0.300877 0.376504 
-0.247938 0.334305 0.178819 
-0.247924 0.320379 0.255601 
-0.247917 0.310412 0.324577 
-0.247917 0.291599 0.425078 
-0.247894 0.320340 0.286263 
-0.247891 0.327196 0.237000 
-0.247891 0.327195 0.220567 
-0.247888 0.303949 0.329107 
-0.247860 0.341444 0.153567 
-0.247852 0.334189 0.176610 
-0.247847 0.334183 0.214285 
-0.247840 0.330627 0.190490 
-0.247838 0.327125 0.222833 
-0.247809 0.313552 0.290365 
-0.247786 0.327057 0.239292 
-0.247773 0.330538 0.238500 
-0.247773 0.316823 0.281625 
-0.247769 0.334078 0.191746 
-0.247757 0.341301 0.159785 
-0.247755 0.320161 0.257903 
-0.247730 0.341265 0.145203 
-0.247728 0.310176 0.318594 
-0.247719 0.320113 0.250477 
-0.247711 0.326957 0.227375 
-0.247692 0.285369 0.416002 
-0.247674 0.326908 0.241588 
-0.247670 0.300532 0.382696 
-0.247664 0.326896 0.251321 
-0.247610 0.333864 0.185065 
-0.247609 0.330319 0.228830 
-0.247586 0.303579 0.391736 
-0.247580 0.341058 0.176727 
-0.247579 0.309990 0.329950 
-0.247579 0.319933 0.260208 
-0.247564 0.303551 0.371711 
-0.247530 0.340989 0.149211 
-0.247524 0.326711 0.261127 
-0.247521 0.337335 0.186285 
-0.247498 0.300322 0.375809 
-0.247471 0.316437 0.302712 
-0.247433 0.344548 0.150213 
-0.247426 0.326582 0.246188 
-0.247426 0.316379 0.322350 
-0.247418 0.313058 0.297965 
-0.247395 0.319696 0.262516 
-0.247394 0.319694 0.285686 
-0.247383 0.290972 0.409557 
-0.247374 0.290961 0.420443 
-0.247373 0.319666 0.275211 
-0.247369 0.303312 0.361800 
-0.247368 0.329997 0.262739 
-0.247363 0.300159 0.378899 
-0.247351 0.340743 0.140883 
-0.247348 0.333510 0.200279 
-0.247342 0.326471 0.263454 
-0.247341 0.319626 0.247664 
-0.247339 0.329958 0.192291 
-0.247336 0.300126 0.388908 
-0.247315 0.300100 0.435696 
-0.247311 0.322986 0.256668 
-0.247295 0.316212 0.299760 
-0.247290 0.296963 0.410800 
-0.247287 0.333429 0.216098 
-0.247287 0.322954 0.264149 
-0.247277 0.312879 0.303252 
-0.247268 0.333403 0.193559 
-0.247267 0.300042 0.368957 
-0.247257 0.309587 0.341393 
-0.247247 0.290811 0.416561 
-0.247238 0.312829 0.311524 
-0.247217 0.299982 0.381995 
-0.247216 0.329795 0.223787 
-0.247205 0.303112 0.367942 
-0.247159 0.299911 0.405968 
-0.247149 0.299899 0.352992 
-0.247127 0.319349 0.288028 
-0.247100 0.309389 0.329310 
-0.247065 0.319269 0.293304 
-0.247048 0.344012 0.152062 
-0.247040 0.299767 0.375115 
-0.247038 0.336677 0.188109 
-0.247031 0.309303 0.326307 
-0.247021 0.312555 0.292106 
-0.247013 0.296631 0.413945 
-0.247008 0.329517 0.230629 
-0.246977 0.302833 0.330815 
-0.246976 0.340227 0.148877 
-0.246958 0.299667 0.402110 
-0.246956 0.325962 0.210622 
-0.246947 0.340185 0.136585 
-0.246925 0.293460 0.414891 
-0.246919 0.329398 0.205251 
-0.246899 0.319055 0.279868 
-0.246886 0.299580 0.388201 
-0.246875 0.336454 0.160190 
-0.246824 0.332803 0.208845 
-0.246819 0.299499 0.431023 
-0.246809 0.290297 0.415823 
-0.246806 0.339992 0.184860 
-0.246796 0.339978 0.161265 
-0.246775 0.325723 0.247973 
-0.246773 0.318891 0.295654 
-0.246751 0.315516 0.285705 
-0.246743 0.325680 0.238285 
-0.246743 0.329163 0.221040 
-0.246723 0.332668 0.217907 
-0.246681 0.332610 0.220182 
-0.246678 0.308862 0.331678 
-0.246678 0.329077 0.264536 
-0.246672 0.296222 0.406209 
-0.246663 0.290125 0.411954 
-0.246656 0.318740 0.300957 
-0.246645 0.325551 0.265239 
-0.246636 0.318714 0.276972 
-0.246633 0.325535 0.240573 
-0.246629 0.329011 0.239796 
-0.246628 0.329010 0.225583 
-0.246628 0.322093 0.258441 
-0.246619 0.339735 0.144552 
-0.246606 0.299240 0.384391 
-0.246594 0.339700 0.138418 
-0.246592 0.339698 0.150710 
-0.246584 0.322036 0.265922 
-0.246560 0.328919 0.227860 
-0.246536 0.302292 0.373416 
-0.246512 0.292970 0.428982 
-0.246510 0.315209 0.282801 
-0.246507 0.339579 0.165292 
-0.246506 0.321934 0.278671 
-0.246503 0.302251 0.393442 
-0.246497 0.339566 0.175953 
-0.246487 0.315179 0.301509 
-0.246465 0.315151 0.321098 
-0.246454 0.311838 0.304989 
-0.246446 0.343173 0.133212 
-0.246437 0.299035 0.387494 
-0.246413 0.302141 0.376504 
-0.246413 0.315084 0.293289 
-0.246402 0.328709 0.232424 
-0.246393 0.311760 0.313261 
-0.246380 0.328678 0.207045 
-0.246370 0.328665 0.209289 
-0.246369 0.302086 0.363504 
-0.246367 0.332188 0.158757 
-0.246362 0.339380 0.154714 
-0.246356 0.318352 0.289787 
-0.246325 0.308420 0.343118 
-0.246322 0.325125 0.235500 
-0.246297 0.332093 0.203895 
-0.246289 0.332083 0.201650 
-0.246264 0.295731 0.398513 
-0.246261 0.308339 0.355308 
-0.246254 0.298814 0.390601 
-0.246249 0.308325 0.334045 
-0.246245 0.325023 0.269897 
-0.246241 0.298797 0.370650 
-0.246231 0.314852 0.329488 
-0.246228 0.311552 0.293842 
-0.246200 0.308263 0.331035 
-0.246200 0.339157 0.182228 
-0.246183 0.289560 0.422105 
-0.246175 0.339123 0.134140 
-0.246162 0.328388 0.222833 
-0.246161 0.314762 0.326475 
-0.246155 0.298692 0.383687 
-0.246150 0.318086 0.281625 
-0.246131 0.318062 0.286867 
-0.246106 0.331836 0.221987 
-0.246081 0.338992 0.167121 
-0.246050 0.331760 0.224264 
-0.246043 0.338941 0.177782 
-0.246030 0.298541 0.407659 
-0.245999 0.328170 0.241588 
-0.245997 0.324695 0.242353 
-0.245996 0.324695 0.259515 
-0.245987 0.298489 0.386786 
-0.245984 0.307992 0.322046 
-0.245983 0.328150 0.266328 
-0.245981 0.317868 0.297411 
-0.245981 0.314531 0.287450 
-0.245963 0.338830 0.156542 
-0.245961 0.328121 0.229652 
-0.245952 0.331628 0.160560 
-0.245944 0.324626 0.267018 
-0.245911 0.307901 0.370683 
-0.245893 0.317755 0.278728 
-0.245876 0.321111 0.267689 
-0.245869 0.338701 0.148210 
-0.245855 0.295240 0.415625 
-0.245850 0.317698 0.302712 
-0.245849 0.338673 0.188520 
-0.245835 0.327952 0.208835 
-0.245833 0.338651 0.162734 
-0.245820 0.327932 0.211080 
-0.245812 0.307777 0.336413 
-0.245807 0.298270 0.389891 
-0.245793 0.338597 0.186285 
-0.245792 0.327894 0.234214 
-0.245768 0.298223 0.410800 
-0.245765 0.331375 0.205697 
-0.245764 0.320965 0.280438 
-0.245763 0.314253 0.314499 
-0.245722 0.307665 0.330392 
-0.245703 0.298144 0.382983 
-0.245699 0.338467 0.160549 
-0.245692 0.338457 0.146053 
-0.245674 0.314140 0.303252 
-0.245657 0.324246 0.256668 
-0.245648 0.317438 0.281052 
-0.245614 0.298036 0.393000 
-0.245603 0.310761 0.356646 
-0.245585 0.338310 0.179608 
-0.245580 0.317349 0.291541 
-0.245577 0.327607 0.224621 
-0.245559 0.338274 0.158368 
-0.245549 0.341924 0.134750 
-0.245543 0.310685 0.314992 
-0.245526 0.317280 0.305067 
-0.245514 0.310648 0.329310 
-0.245496 0.313912 0.308557 
-0.245493 0.297890 0.413945 
-0.245474 0.334545 0.189100 
-0.245465 0.330971 0.226064 
-0.245416 0.300918 0.395140 
-0.245400 0.297777 0.403078 
-0.245389 0.307247 0.344837 
-0.245382 0.307239 0.347875 
-0.245381 0.341690 0.178564 
-0.245373 0.300865 0.378202 
-0.245363 0.338004 0.190344 
-0.245363 0.317069 0.288619 
-0.245359 0.297727 0.389181 
-0.245356 0.323849 0.244128 
-0.245343 0.313717 0.331229 
-0.245332 0.297695 0.410072 
-0.245329 0.327278 0.253108 
-0.245319 0.334333 0.152983 
-0.245317 0.337941 0.172973 
-0.245315 0.337938 0.147876 
-0.245314 0.323794 0.274004 
-0.245313 0.337936 0.188109 
-0.245310 0.323789 0.261290 
-0.245292 0.316978 0.293880 
-0.245291 0.307125 0.357026 
-0.245285 0.337897 0.162372 
-0.245284 0.327217 0.268115 
-0.245270 0.337876 0.135658 
-0.245265 0.327192 0.212866 
-0.245215 0.337799 0.170770 
-0.245206 0.313540 0.289190 
-0.245204 0.341443 0.136585 
-0.245195 0.316852 0.307424 
-0.245185 0.316839 0.299162 
-0.245176 0.327073 0.236000 
-0.245165 0.327058 0.262913 
-0.245164 0.320181 0.269451 
-0.245150 0.313469 0.310908 
-0.245149 0.294392 0.400189 
-0.245137 0.337693 0.145723 
-0.245130 0.291327 0.422848 
-0.245123 0.337673 0.181430 
-0.245105 0.337649 0.168573 
-0.245105 0.306891 0.323763 
-0.245088 0.297398 0.385372 
-0.245085 0.316709 0.290953 
-0.245018 0.319991 0.282199 
-0.244997 0.316597 0.296221 
-0.244983 0.333876 0.190909 
-0.244977 0.326808 0.265239 
-0.244968 0.309957 0.325671 
-0.244962 0.337451 0.177001 
-0.244960 0.297243 0.402356 
-0.244941 0.337423 0.196648 
-0.244934 0.323292 0.265922 
-0.244934 0.337413 0.149697 
-0.244933 0.326749 0.283288 
-0.244924 0.341054 0.180397 
-0.244921 0.333792 0.154791 
-0.244918 0.306658 0.317806 
-0.244911 0.297184 0.388471 
-0.244899 0.306634 0.372399 
-0.244898 0.306633 0.350253 
-0.244897 0.297166 0.409344 
-0.244895 0.316465 0.282801 
-0.244887 0.291038 0.415086 
-0.244879 0.340991 0.144552 
-0.244875 0.330176 0.227860 
-0.244873 0.337329 0.192164 
-0.244871 0.337327 0.174793 
-0.244869 0.326663 0.272784 
-0.244867 0.337321 0.164192 
-0.244857 0.313094 0.304989 
-0.244854 0.340956 0.138418 
-0.244849 0.326636 0.242864 
-0.244829 0.306547 0.356354 
-0.244829 0.337268 0.189929 
-0.244820 0.306535 0.332107 
-0.244813 0.300179 0.367580 
-0.244794 0.323108 0.253301 
-0.244777 0.306481 0.359413 
-0.244775 0.337193 0.172590 
-0.244723 0.296955 0.391574 
-0.244710 0.322997 0.245898 
-0.244710 0.300053 0.370650 
-0.244708 0.337102 0.153675 
-0.244705 0.326445 0.214648 
-0.244694 0.316205 0.298563 
-0.244692 0.293844 0.417298 
-0.244688 0.309603 0.316717 
-0.244684 0.326416 0.280371 
-0.244665 0.326391 0.254891 
-0.244664 0.312848 0.310293 
-0.244655 0.337029 0.183249 
-0.244636 0.309537 0.358371 
-0.244626 0.296837 0.412482 
-0.244624 0.299947 0.383687 
-0.244621 0.309518 0.331035 
-0.244619 0.322877 0.263060 
-0.244594 0.326296 0.247454 
-0.244590 0.322838 0.275774 
-0.244584 0.290678 0.418222 
-0.244580 0.326278 0.269897 
-0.244578 0.309464 0.361440 
-0.244575 0.322818 0.248186 
-0.244561 0.336898 0.168198 
-0.244556 0.326246 0.237781 
-0.244552 0.316021 0.303857 
-0.244548 0.336881 0.151515 
-0.244521 0.296710 0.394681 
-0.244520 0.333244 0.156596 
-0.244509 0.340476 0.146382 
-0.244508 0.309376 0.364515 
-0.244499 0.340462 0.140248 
-0.244497 0.336811 0.133225 
-0.244463 0.340411 0.182228 
-0.244461 0.296637 0.408615 
-0.244457 0.299743 0.386786 
-0.244455 0.326111 0.249754 
-0.244451 0.312575 0.332963 
-0.244447 0.306069 0.346550 
-0.244447 0.319244 0.271208 
-0.244444 0.336738 0.166009 
-0.244435 0.336726 0.198465 
-0.244433 0.306050 0.349587 
-0.244432 0.322630 0.250477 
-0.244421 0.306035 0.337476 
-0.244406 0.306017 0.352631 
-0.244381 0.336651 0.149359 
-0.244378 0.336647 0.193981 
-0.244373 0.315790 0.320472 
-0.244371 0.315788 0.309169 
-0.244359 0.322533 0.278105 
-0.244342 0.296493 0.415625 
-0.244340 0.336594 0.191746 
-0.244328 0.299583 0.379892 
-0.244324 0.299579 0.396830 
-0.244320 0.336568 0.163826 
-0.244312 0.336556 0.155492 
-0.244281 0.325879 0.267018 
-0.244280 0.329374 0.229652 
-0.244279 0.296417 0.404758 
-0.244277 0.296414 0.390860 
-0.244269 0.315655 0.317482 
-0.244267 0.319010 0.283955 
-0.244262 0.309064 0.339434 
-0.244253 0.312322 0.323944 
-0.244242 0.336460 0.187287 
-0.244231 0.322365 0.267689 
-0.244227 0.318958 0.273523 
-0.244224 0.315597 0.306206 
-0.244221 0.305785 0.325474 
-0.244219 0.340073 0.175566 
-0.244211 0.325785 0.244643 
-0.244189 0.325757 0.285067 
-0.244184 0.287208 0.411400 
-0.244183 0.336379 0.185065 
-0.244163 0.312208 0.320953 
-0.244159 0.318868 0.294472 
-0.244157 0.336343 0.153329 
-0.244153 0.325708 0.290351 
-0.244141 0.325693 0.216426 
-0.244140 0.339962 0.142076 
-0.244127 0.336301 0.170013 
-0.244112 0.322207 0.285686 
-0.244098 0.339904 0.162734 
-0.244077 0.296172 0.393965 
-0.244062 0.332621 0.207945 
-0.244038 0.325555 0.237277 
-0.244035 0.312043 0.306720 
-0.244015 0.299200 0.376108 
-0.243997 0.339762 0.184055 
-0.243996 0.336120 0.151172 
-0.243995 0.325498 0.256668 
-0.243966 0.336080 0.178424 
-0.243946 0.339692 0.139931 
-0.243944 0.325429 0.249231 
-0.243932 0.336032 0.209295 
-0.243932 0.325413 0.239558 
-0.243922 0.305410 0.384097 
-0.243919 0.321952 0.249951 
-0.243914 0.305400 0.333815 
-0.243911 0.336004 0.157305 
-0.243895 0.315172 0.300305 
-0.243883 0.305362 0.374108 
-0.243865 0.295915 0.397075 
-0.243864 0.318483 0.296816 
-0.243861 0.321876 0.277539 
-0.243857 0.305329 0.358062 
-0.243829 0.308516 0.318435 
-0.243818 0.325261 0.241841 
-0.243790 0.315036 0.316859 
-0.243787 0.321779 0.293304 
-0.243770 0.321756 0.252241 
-0.243762 0.335798 0.155141 
-0.243758 0.295785 0.411020 
-0.243746 0.339413 0.137792 
-0.243723 0.308382 0.332753 
-0.243708 0.325115 0.232229 
-0.243686 0.298796 0.372336 
-0.243685 0.311596 0.320323 
-0.243682 0.339324 0.164559 
-0.243666 0.298773 0.399233 
-0.243640 0.314842 0.283963 
-0.243634 0.295633 0.393249 
-0.243630 0.298729 0.406209 
-0.243624 0.321563 0.279868 
-0.243588 0.339193 0.141754 
-0.243570 0.342855 0.157243 
-0.243568 0.324928 0.246417 
-0.243554 0.311428 0.334691 
-0.243544 0.314718 0.310908 
-0.243534 0.331902 0.203010 
-0.243526 0.339107 0.185878 
-0.243523 0.321430 0.269451 
-0.243523 0.331886 0.209743 
-0.243520 0.308125 0.366232 
-0.243515 0.314681 0.322211 
-0.243511 0.318023 0.285705 
-0.243506 0.335445 0.159115 
-0.243502 0.304884 0.348255 
-0.243500 0.304882 0.339182 
-0.243488 0.324821 0.256134 
-0.243479 0.295446 0.414157 
-0.243478 0.304855 0.351293 
-0.243475 0.304851 0.336170 
-0.243445 0.308031 0.320781 
-0.243419 0.314557 0.319220 
-0.243416 0.331740 0.191868 
-0.243415 0.324723 0.239050 
-0.243415 0.335320 0.206589 
-0.243404 0.314537 0.307945 
-0.243393 0.335290 0.211105 
-0.243389 0.298432 0.388471 
-0.243379 0.311205 0.325671 
-0.243376 0.338898 0.168573 
-0.243374 0.298414 0.409344 
-0.243370 0.338890 0.151857 
-0.243357 0.321211 0.287447 
-0.243344 0.311160 0.311404 
-0.243338 0.304679 0.360442 
-0.243325 0.295258 0.410288 
-0.243313 0.335180 0.193136 
-0.243311 0.304645 0.376504 
-0.243309 0.335174 0.217907 
-0.243302 0.324573 0.241330 
-0.243292 0.307837 0.335114 
-0.243289 0.324556 0.251004 
-0.243267 0.304590 0.363504 
-0.243246 0.335088 0.173633 
-0.243245 0.317675 0.288035 
-0.243227 0.298234 0.398513 
-0.243225 0.335059 0.188685 
-0.243201 0.295108 0.399466 
-0.243201 0.298202 0.391574 
-0.243190 0.295095 0.392533 
-0.243187 0.295091 0.417298 
-0.243183 0.324414 0.243613 
-0.243170 0.342292 0.159076 
-0.243158 0.324381 0.273445 
-0.243147 0.324366 0.260749 
-0.243145 0.310906 0.340087 
-0.243139 0.324355 0.253301 
-0.243090 0.314132 0.302041 
-0.243089 0.304367 0.369646 
-0.243045 0.304313 0.344562 
-0.243043 0.304310 0.341540 
-0.243040 0.334803 0.169256 
-0.243029 0.304292 0.338526 
-0.243019 0.285838 0.413041 
-0.243012 0.320756 0.295063 
-0.243008 0.331184 0.204804 
-0.242979 0.331145 0.211537 
-0.242975 0.297925 0.377789 
-0.242968 0.334704 0.179836 
-0.242944 0.338297 0.170392 
-0.242941 0.297883 0.408615 
-0.242936 0.324085 0.275774 
-0.242924 0.345676 0.133212 
-0.242918 0.331062 0.193662 
-0.242889 0.334595 0.206143 
-0.242887 0.334593 0.177634 
-0.242884 0.320586 0.281625 
-0.242879 0.304105 0.359764 
-0.242879 0.313859 0.285697 
-0.242873 0.304098 0.385799 
-0.242866 0.334564 0.199410 
-0.242862 0.304083 0.375809 
-0.242850 0.334541 0.212911 
-0.242815 0.323924 0.257903 
-0.242799 0.334472 0.175438 
-0.242779 0.323875 0.250477 
-0.242778 0.327348 0.240065 
-0.242771 0.338056 0.133225 
-0.242766 0.341723 0.160907 
-0.242761 0.294575 0.398744 
-0.242748 0.334401 0.219712 
-0.242743 0.338017 0.205222 
-0.242711 0.313642 0.312642 
-0.242644 0.327168 0.230454 
-0.242631 0.320253 0.278728 
-0.242630 0.323676 0.252771 
-0.242616 0.294398 0.412688 
-0.242607 0.316842 0.306206 
-0.242604 0.334203 0.171059 
-0.242597 0.320208 0.289203 
-0.242596 0.337812 0.163826 
-0.242593 0.320203 0.273523 
-0.242587 0.345197 0.135054 
-0.242587 0.316816 0.297965 
-0.242579 0.313472 0.309677 
-0.242574 0.303722 0.340881 
-0.242563 0.297420 0.400911 
-0.242519 0.337704 0.187287 
-0.242508 0.337690 0.172207 
-0.242505 0.310087 0.313124 
-0.242479 0.297317 0.433644 
-0.242478 0.316674 0.289778 
-0.242467 0.337633 0.161647 
-0.242462 0.323453 0.262516 
-0.242461 0.330439 0.199897 
-0.242449 0.316635 0.303252 
-0.242440 0.323423 0.275211 
-0.242434 0.337587 0.153329 
-0.242431 0.330398 0.213328 
-0.242430 0.337581 0.135040 
-0.242416 0.306728 0.342859 
-0.242416 0.330377 0.195452 
-0.242416 0.319968 0.299760 
-0.242405 0.306715 0.339838 
-0.242395 0.337532 0.182847 
-0.242358 0.333864 0.207945 
-0.242354 0.303447 0.362140 
-0.242353 0.313179 0.314992 
-0.242352 0.333856 0.201212 
-0.242346 0.333848 0.210197 
-0.242327 0.294048 0.415823 
-0.242325 0.297128 0.404033 
-0.242325 0.313143 0.329310 
-0.242322 0.319844 0.291541 
-0.242317 0.330243 0.255951 
-0.242314 0.333804 0.196743 
-0.242302 0.333786 0.214713 
-0.242283 0.303359 0.378202 
-0.242282 0.293993 0.404973 
-0.242282 0.313087 0.303771 
-0.242280 0.316415 0.300305 
-0.242275 0.303348 0.365202 
-0.242274 0.337364 0.151172 
-0.242273 0.316406 0.308557 
-0.242262 0.303332 0.388201 
-0.242246 0.344711 0.136894 
-0.242245 0.337323 0.178424 
-0.242243 0.297027 0.411020 
-0.242234 0.309740 0.344837 
-0.242232 0.319726 0.296816 
-0.242230 0.313021 0.312023 
-0.242229 0.309734 0.341806 
-0.242190 0.337247 0.157305 
-0.242184 0.293874 0.411954 
-0.242178 0.312954 0.323312 
-0.242177 0.337229 0.165639 
-0.242159 0.337204 0.176219 
-0.242151 0.326503 0.241841 
-0.242133 0.344550 0.172285 
-0.242128 0.333548 0.223787 
-0.242126 0.296884 0.400189 
-0.242121 0.337151 0.142924 
-0.242119 0.296875 0.393249 
-0.242106 0.319559 0.302111 
-0.242097 0.312848 0.309061 
-0.242088 0.312837 0.320323 
-0.242080 0.303104 0.371342 
-0.242068 0.337076 0.174020 
-0.242060 0.296804 0.432895 
-0.242043 0.326357 0.232229 
-0.242041 0.337040 0.155141 
-0.242039 0.337037 0.189100 
-0.242017 0.319442 0.267784 
-0.242000 0.333372 0.160197 
-0.241970 0.329769 0.253108 
-0.241953 0.326236 0.234500 
-0.241939 0.306125 0.348255 
-0.241927 0.336881 0.184658 
-0.241909 0.329687 0.197238 
-0.241898 0.347984 0.154251 
-0.241897 0.302876 0.361458 
-0.241895 0.319280 0.280478 
-0.241890 0.333220 0.179038 
-0.241887 0.336825 0.152983 
-0.241878 0.329644 0.215114 
-0.241877 0.322671 0.269451 
-0.241849 0.284462 0.414674 
-0.241834 0.333143 0.203010 
-0.241823 0.333127 0.209743 
-0.241821 0.302780 0.387494 
-0.241812 0.296499 0.410288 
-0.241808 0.333106 0.198541 
-0.241805 0.333103 0.211995 
-0.241788 0.336687 0.180234 
-0.241787 0.336686 0.159115 
-0.241755 0.336641 0.144734 
-0.241753 0.333031 0.194088 
-0.241753 0.336638 0.167449 
-0.241742 0.347761 0.152062 
-0.241718 0.322459 0.276972 
-0.241710 0.332972 0.218773 
-0.241704 0.312341 0.322679 
-0.241696 0.302624 0.380593 
-0.241672 0.332920 0.189653 
-0.241665 0.332909 0.221040 
-0.241654 0.329340 0.257735 
-0.241652 0.293229 0.400406 
-0.241644 0.336487 0.156950 
-0.241634 0.340130 0.151857 
-0.241623 0.305725 0.366572 
-0.241612 0.332837 0.223310 
-0.241596 0.302498 0.351647 
-0.241591 0.340070 0.133530 
-0.241567 0.312164 0.346156 
-0.241556 0.302448 0.354684 
-0.241556 0.336364 0.190909 
-0.241554 0.308872 0.326113 
-0.241552 0.332755 0.225583 
-0.241551 0.318827 0.293289 
-0.241518 0.332707 0.170294 
-0.241511 0.347428 0.156098 
-0.241509 0.312089 0.316717 
-0.241509 0.336298 0.188685 
-0.241495 0.336279 0.154791 
-0.241490 0.339927 0.143575 
-0.241486 0.305552 0.344562 
-0.241468 0.312036 0.305496 
-0.241468 0.293005 0.414349 
-0.241452 0.315334 0.310293 
-0.241451 0.302317 0.393713 
-0.241443 0.312004 0.331035 
-0.241429 0.332585 0.180833 
-0.241365 0.302209 0.363831 
-0.241341 0.325411 0.236270 
-0.241325 0.336042 0.169256 
-0.241320 0.292826 0.410485 
-0.241315 0.305336 0.385799 
-0.241309 0.318508 0.269531 
-0.241309 0.332419 0.207045 
-0.241307 0.318506 0.303857 
-0.241305 0.308552 0.346550 
-0.241302 0.339662 0.141433 
-0.241298 0.321899 0.256291 
-0.241296 0.332402 0.200335 
-0.241283 0.332383 0.211537 
-0.241278 0.302100 0.366892 
-0.241271 0.321864 0.263728 
-0.241264 0.308500 0.352631 
-0.241254 0.332343 0.195882 
-0.241252 0.339591 0.135349 
-0.241248 0.339587 0.153675 
-0.241248 0.302062 0.396830 
-0.241246 0.308478 0.334465 
-0.241246 0.335932 0.243618 
-0.241229 0.332309 0.216045 
-0.241203 0.302006 0.389891 
-0.241184 0.332247 0.191446 
-0.241176 0.308387 0.358738 
-0.241170 0.332228 0.163786 
-0.241169 0.321728 0.271208 
-0.241156 0.335807 0.210651 
-0.241147 0.332196 0.220567 
-0.241146 0.305122 0.388908 
-0.241139 0.332185 0.189234 
-0.241124 0.339413 0.145393 
-0.241120 0.346866 0.157943 
-0.241108 0.328594 0.249754 
-0.241107 0.295635 0.412688 
-0.241055 0.311502 0.373776 
-0.241040 0.308214 0.364868 
-0.241038 0.292484 0.413612 
-0.241037 0.332045 0.225102 
-0.241030 0.304975 0.381995 
-0.241026 0.335626 0.190490 
-0.240992 0.321491 0.283955 
-0.240991 0.321489 0.278728 
-0.240963 0.342886 0.169322 
-0.240963 0.331943 0.182624 
-0.240943 0.289342 0.414521 
-0.240942 0.301679 0.376108 
-0.240907 0.339107 0.137165 
-0.240892 0.335439 0.171059 
-0.240879 0.321341 0.268340 
-0.240850 0.301564 0.424884 
-0.240841 0.311225 0.324399 
-0.240835 0.335360 0.146207 
-0.240803 0.301506 0.403078 
-0.240794 0.328167 0.235000 
-0.240781 0.331691 0.202126 
-0.240778 0.307879 0.333815 
-0.240776 0.317804 0.295032 
-0.240763 0.301456 0.389181 
-0.240749 0.331648 0.197672 
-0.240748 0.331646 0.165576 
-0.240744 0.292126 0.416742 
-0.240738 0.331633 0.213328 
-0.240737 0.301423 0.410072 
-0.240735 0.321148 0.286286 
-0.240732 0.307821 0.330815 
-0.240678 0.295109 0.411954 
-0.240675 0.307748 0.327821 
-0.240673 0.331543 0.217834 
-0.240672 0.321064 0.270649 
-0.240661 0.307730 0.361121 
-0.240658 0.301323 0.382279 
-0.240653 0.314290 0.326307 
-0.240651 0.331513 0.191023 
-0.240645 0.342432 0.148210 
-0.240641 0.310967 0.347875 
-0.240629 0.304468 0.368269 
-0.240627 0.314256 0.312023 
-0.240624 0.335066 0.245420 
-0.240613 0.331461 0.263454 
-0.240580 0.331414 0.222356 
-0.240579 0.320940 0.265481 
-0.240575 0.314188 0.323312 
-0.240558 0.338616 0.138979 
-0.240557 0.310858 0.332753 
-0.240528 0.304340 0.391311 
-0.240504 0.317446 0.305598 
-0.240494 0.331297 0.161260 
-0.240493 0.331295 0.184412 
-0.240492 0.307513 0.380295 
-0.240470 0.320795 0.288619 
-0.240460 0.334838 0.148007 
-0.240453 0.327703 0.229961 
-0.240447 0.320765 0.310393 
-0.240443 0.310711 0.326753 
-0.240441 0.327686 0.266470 
-0.240426 0.331203 0.250799 
-0.240407 0.317317 0.283963 
-0.240401 0.320703 0.293880 
-0.240391 0.334742 0.185645 
-0.240371 0.307358 0.348255 
-0.240364 0.331118 0.278588 
-0.240359 0.334697 0.226064 
-0.240346 0.307327 0.383396 
-0.240337 0.304097 0.394427 
-0.240321 0.331058 0.167362 
-0.240316 0.291608 0.416002 
-0.240315 0.327514 0.261290 
-0.240314 0.307285 0.354337 
-0.240292 0.341930 0.143901 
-0.240280 0.331002 0.253108 
-0.240276 0.300846 0.368576 
-0.240276 0.327460 0.215957 
-0.240273 0.313793 0.314369 
-0.240260 0.330974 0.203912 
-0.240259 0.320513 0.280478 
-0.240217 0.330915 0.212866 
-0.240209 0.338124 0.146875 
-0.240202 0.338113 0.184658 
-0.240189 0.330877 0.215114 
-0.240186 0.310379 0.317806 
-0.240185 0.327337 0.236773 
-0.240165 0.300706 0.398513 
-0.240131 0.310308 0.335114 
-0.240118 0.334361 0.200774 
-0.240116 0.291364 0.423013 
-0.240112 0.330771 0.219620 
-0.240105 0.341664 0.172973 
-0.240090 0.310255 0.332107 
-0.240081 0.327196 0.239050 
-0.240079 0.330724 0.163045 
-0.240062 0.330701 0.247973 
-0.240054 0.310209 0.375491 
-0.240029 0.337870 0.167449 
-0.240018 0.330641 0.186197 
-0.240013 0.313454 0.319694 
-0.240012 0.320184 0.282801 
-0.240007 0.330626 0.224140 
-0.239997 0.334193 0.247218 
-0.239989 0.327070 0.258441 
-0.239972 0.310103 0.326113 
-0.239970 0.327045 0.241330 
-0.239967 0.294236 0.414349 
-0.239959 0.334141 0.221040 
-0.239944 0.330539 0.226406 
-0.239940 0.300425 0.401633 
-0.239928 0.341413 0.145723 
-0.239918 0.320058 0.293289 
-0.239916 0.300394 0.377789 
-0.239907 0.334068 0.223310 
-0.239896 0.310005 0.323127 
-0.239885 0.294136 0.425252 
-0.239878 0.306728 0.335518 
-0.239874 0.330443 0.228674 
-0.239857 0.326890 0.231733 
-0.239852 0.326883 0.243613 
-0.239849 0.341301 0.133530 
-0.239835 0.337598 0.148683 
-0.239807 0.337558 0.173633 
-0.239797 0.330336 0.230946 
-0.239785 0.313157 0.328031 
-0.239784 0.287949 0.416160 
-0.239782 0.333893 0.227860 
-0.239766 0.300206 0.415625 
-0.239757 0.306573 0.359764 
-0.239751 0.306566 0.385799 
-0.239751 0.326745 0.268241 
-0.239741 0.319822 0.329488 
-0.239739 0.306551 0.375809 
-0.239732 0.337453 0.186466 
-0.239728 0.323236 0.268896 
-0.239713 0.330220 0.233221 
-0.239712 0.319784 0.290365 
-0.239709 0.309763 0.349587 
-0.239708 0.337419 0.171442 
-0.239704 0.300129 0.404758 
-0.239701 0.300126 0.390860 
-0.239700 0.303291 0.396830 
-0.239697 0.316380 0.307332 
-0.239691 0.300113 0.426564 
-0.239688 0.330187 0.245158 
-0.239669 0.330160 0.214648 
-0.239668 0.341043 0.174793 
-0.239659 0.330145 0.164826 
-0.239648 0.330131 0.280371 
-0.239638 0.326591 0.263060 
-0.239633 0.319678 0.312140 
-0.239631 0.303204 0.369959 
-0.239621 0.330095 0.235500 
-0.239618 0.300022 0.411751 
-0.239605 0.333647 0.202568 
-0.239603 0.337271 0.169256 
-0.239580 0.333613 0.211537 
-0.239568 0.309580 0.328464 
-0.239538 0.340857 0.162009 
-0.239520 0.322955 0.292129 
-0.239509 0.340816 0.153675 
-0.239496 0.319496 0.287450 
-0.239496 0.326398 0.226720 
-0.239489 0.333486 0.218304 
-0.239478 0.322899 0.241552 
-0.239461 0.290570 0.414521 
-0.239459 0.306192 0.343899 
-0.239436 0.312701 0.316091 
-0.239430 0.329832 0.225921 
-0.239424 0.329823 0.249754 
-0.239366 0.336937 0.175438 
-0.239362 0.329737 0.228186 
-0.239359 0.306064 0.356035 
-0.239335 0.309279 0.319516 
-0.239320 0.290399 0.410662 
-0.239286 0.329632 0.230454 
-0.239281 0.329626 0.252056 
-0.239271 0.299586 0.370252 
-0.239259 0.336787 0.188270 
-0.239247 0.315786 0.317968 
-0.239234 0.309149 0.336823 
-0.239228 0.340416 0.176610 
-0.239221 0.326023 0.245379 
-0.239205 0.340383 0.143250 
-0.239203 0.329518 0.232725 
-0.239199 0.333082 0.229652 
-0.239188 0.340360 0.149359 
-0.239180 0.315698 0.279915 
-0.239170 0.340334 0.137165 
-0.239159 0.290204 0.417646 
-0.239148 0.319031 0.295032 
-0.239138 0.315641 0.314992 
-0.239131 0.329419 0.254361 
-0.239129 0.340276 0.163826 
-0.239128 0.329415 0.274563 
-0.239118 0.336589 0.160560 
-0.239117 0.329399 0.216426 
-0.239113 0.329394 0.235000 
-0.239113 0.293189 0.412874 
-0.239087 0.332925 0.204358 
-0.239077 0.332912 0.208835 
-0.239069 0.305694 0.368269 
-0.239058 0.329318 0.246936 
-0.239056 0.325798 0.270007 
-0.239055 0.302475 0.399233 
-0.239049 0.308910 0.377199 
-0.239039 0.332860 0.213328 
-0.239029 0.315498 0.295572 
-0.239027 0.322291 0.270649 
-0.239019 0.340119 0.147208 
-0.239016 0.329260 0.237277 
-0.238995 0.340085 0.185065 
-0.238992 0.305595 0.346258 
-0.238977 0.329207 0.223179 
-0.238974 0.305572 0.337214 
-0.238965 0.340043 0.135040 
-0.238953 0.332740 0.191023 
-0.238950 0.318767 0.292106 
-0.238932 0.332709 0.220093 
-0.238927 0.329138 0.282148 
-0.238920 0.336310 0.177240 
-0.238913 0.312018 0.329749 
-0.238891 0.343658 0.148210 
-0.238885 0.315308 0.309061 
-0.238885 0.299104 0.379463 
-0.238876 0.315297 0.320323 
-0.238876 0.318669 0.331229 
-0.238867 0.332619 0.248492 
-0.238849 0.329031 0.227697 
-0.238844 0.299053 0.403307 
-0.238843 0.339869 0.145064 
-0.238824 0.339841 0.138979 
-0.238822 0.292833 0.416002 
-0.238814 0.318585 0.313880 
-0.238811 0.339824 0.151172 
-0.238806 0.308597 0.342200 
-0.238796 0.308583 0.348255 
-0.238787 0.305333 0.361458 
-0.238781 0.336114 0.190071 
-0.238775 0.328928 0.229961 
-0.238774 0.308554 0.351293 
-0.238758 0.321928 0.293880 
-0.238742 0.318490 0.289190 
-0.238732 0.298912 0.382544 
-0.238728 0.339706 0.157305 
-0.238726 0.343421 0.160549 
-0.238721 0.318461 0.302646 
-0.238716 0.339687 0.165639 
-0.238710 0.336014 0.162360 
-0.238698 0.339663 0.176219 
-0.238688 0.308444 0.330169 
-0.238674 0.325277 0.216780 
-0.238666 0.318388 0.294437 
-0.238647 0.339590 0.149021 
-0.238644 0.321774 0.255217 
-0.238635 0.298790 0.392533 
-0.238633 0.328733 0.253831 
-0.238632 0.298787 0.417298 
-0.238628 0.301935 0.371641 
-0.238619 0.286551 0.417791 
-0.238613 0.332265 0.231439 
-0.238606 0.289532 0.413041 
-0.238594 0.339514 0.163459 
-0.238590 0.343225 0.158368 
-0.238588 0.314916 0.303163 
-0.238564 0.332198 0.206145 
-0.238527 0.325077 0.223497 
-0.238527 0.298655 0.428236 
-0.238526 0.318202 0.275878 
-0.238523 0.318197 0.286282 
-0.238522 0.304995 0.370650 
-0.238511 0.343112 0.137792 
-0.238508 0.328561 0.236773 
-0.238494 0.332100 0.215114 
-0.238477 0.328518 0.256134 
-0.238473 0.339342 0.140790 
-0.238470 0.335676 0.179038 
-0.238467 0.318122 0.333606 
-0.238465 0.332059 0.192809 
-0.238431 0.298535 0.395636 
-0.238405 0.328419 0.239050 
-0.238403 0.328416 0.224951 
-0.238402 0.318037 0.304989 
-0.238388 0.335561 0.198541 
-0.238373 0.317998 0.296768 
-0.238369 0.331926 0.221879 
-0.238357 0.324846 0.271767 
-0.238349 0.308005 0.344562 
-0.238339 0.321363 0.242785 
-0.238332 0.307984 0.338526 
-0.238324 0.342843 0.162372 
-0.238321 0.321339 0.272397 
-0.238314 0.328293 0.258441 
-0.238308 0.289171 0.416160 
-0.238298 0.339093 0.167449 
-0.238298 0.335434 0.164157 
-0.238295 0.328267 0.241330 
-0.238292 0.335426 0.218773 
-0.238276 0.304680 0.386786 
-0.238271 0.328234 0.265922 
-0.238270 0.307903 0.332517 
-0.238263 0.328224 0.229469 
-0.238257 0.317842 0.288602 
-0.238254 0.339031 0.178029 
-0.238247 0.314467 0.297296 
-0.238202 0.292072 0.422267 
-0.238172 0.298210 0.405702 
-0.238165 0.342615 0.181430 
-0.238127 0.298155 0.384920 
-0.238112 0.324512 0.218538 
-0.238101 0.342523 0.133530 
-0.238095 0.327992 0.234000 
-0.238095 0.291942 0.418390 
-0.238068 0.314230 0.310785 
-0.238066 0.304410 0.338903 
-0.238064 0.301222 0.374015 
-0.238044 0.338731 0.154791 
-0.238039 0.307604 0.365887 
-0.238036 0.310872 0.331461 
-0.238030 0.314180 0.322046 
-0.238015 0.335036 0.180833 
-0.237992 0.320895 0.295626 
-0.237990 0.317486 0.315614 
-0.237985 0.297977 0.401856 
-0.237980 0.327833 0.255601 
-0.237978 0.320876 0.256962 
-0.237972 0.301106 0.400911 
-0.237972 0.291790 0.414521 
-0.237959 0.342319 0.194404 
-0.237952 0.297935 0.388007 
-0.237938 0.314058 0.319065 
-0.237933 0.314052 0.307830 
-0.237930 0.338570 0.160922 
-0.237917 0.342258 0.164192 
-0.237899 0.327722 0.238543 
-0.237895 0.334867 0.202568 
-0.237893 0.317357 0.296170 
-0.237884 0.334852 0.200335 
-0.237883 0.307403 0.346924 
-0.237864 0.307379 0.349955 
-0.237843 0.307352 0.334865 
-0.237834 0.313921 0.316091 
-0.237833 0.307339 0.352992 
-0.237818 0.327610 0.257903 
-0.237815 0.342110 0.147542 
-0.237814 0.304088 0.363146 
-0.237805 0.338392 0.179836 
-0.237802 0.331137 0.223659 
-0.237802 0.317236 0.277610 
-0.237795 0.338377 0.158757 
-0.237787 0.313859 0.304883 
-0.237783 0.327561 0.250477 
-0.237766 0.342041 0.135349 
-0.237750 0.288494 0.411560 
-0.237744 0.297675 0.404973 
-0.237737 0.334645 0.220567 
-0.237726 0.338279 0.177634 
-0.237711 0.341962 0.183249 
-0.237709 0.338255 0.210651 
-0.237705 0.320509 0.244529 
-0.237699 0.320500 0.297965 
-0.237674 0.327412 0.243098 
-0.237673 0.327410 0.231237 
-0.237653 0.323886 0.273523 
-0.237637 0.327360 0.252771 
-0.237624 0.341837 0.139296 
-0.237611 0.320381 0.274140 
-0.237594 0.316959 0.298500 
-0.237587 0.327292 0.267689 
-0.237565 0.330807 0.267018 
-0.237557 0.341741 0.133225 
-0.237545 0.323740 0.220293 
-0.237534 0.338006 0.188270 
-0.237532 0.338003 0.136226 
-0.237522 0.341690 0.157659 
-0.237493 0.327163 0.235766 
-0.237483 0.303666 0.392287 
-0.237473 0.341619 0.196221 
-0.237462 0.313430 0.299015 
-0.237461 0.341602 0.143250 
-0.237457 0.288139 0.414674 
-0.237445 0.330640 0.194160 
-0.237445 0.341579 0.149359 
-0.237427 0.341553 0.137165 
-0.237426 0.306813 0.340222 
-0.237412 0.316716 0.295572 
-0.237405 0.341521 0.191746 
-0.237398 0.320094 0.300305 
-0.237393 0.327024 0.238035 
-0.237378 0.341482 0.155492 
-0.237367 0.330531 0.189755 
-0.237358 0.297193 0.429899 
-0.237351 0.297183 0.397299 
-0.237340 0.306701 0.355360 
-0.237329 0.330478 0.237277 
-0.237328 0.297155 0.390384 
-0.237323 0.326928 0.257366 
-0.237312 0.300270 0.403307 
-0.237308 0.319973 0.258703 
-0.237306 0.334037 0.215579 
-0.237285 0.326876 0.240307 
-0.237278 0.337641 0.179437 
-0.237276 0.341336 0.147208 
-0.237275 0.341334 0.141112 
-0.237253 0.341302 0.185065 
-0.237249 0.333957 0.191023 
-0.237231 0.330341 0.225436 
-0.237227 0.341266 0.153329 
-0.237224 0.297024 0.411220 
-0.237224 0.306551 0.325250 
-0.237223 0.341260 0.135040 
-0.237190 0.337517 0.150146 
-0.237189 0.341211 0.182847 
-0.237188 0.337514 0.138027 
-0.237179 0.313057 0.323763 
-0.237178 0.337500 0.212453 
-0.237178 0.333857 0.222356 
-0.237155 0.326697 0.293304 
-0.237154 0.309721 0.333166 
-0.237151 0.287767 0.417791 
-0.237147 0.306452 0.364517 
-0.237138 0.326674 0.252241 
-0.237133 0.316344 0.334691 
-0.237132 0.319735 0.260987 
-0.237127 0.341122 0.159473 
-0.237120 0.312978 0.309546 
-0.237115 0.316320 0.297898 
-0.237102 0.341085 0.145064 
-0.237101 0.337390 0.192291 
-0.237097 0.326617 0.267137 
-0.237095 0.312945 0.320781 
-0.237077 0.303146 0.398513 
-0.237070 0.341040 0.151172 
-0.237068 0.319649 0.246268 
-0.237065 0.296824 0.407363 
-0.237059 0.306339 0.367580 
-0.237059 0.337330 0.190071 
-0.237049 0.326550 0.244861 
-0.237008 0.330031 0.232229 
-0.236982 0.340913 0.198035 
-0.236969 0.303009 0.384665 
-0.236957 0.340877 0.195795 
-0.236955 0.337183 0.185645 
-0.236954 0.306203 0.348616 
-0.236949 0.329948 0.195935 
-0.236947 0.306193 0.336558 
-0.236927 0.306168 0.351647 
-0.236920 0.326373 0.247141 
-0.236919 0.329907 0.193730 
-0.236916 0.302941 0.361776 
-0.236914 0.329900 0.215957 
-0.236908 0.340806 0.149021 
-0.236899 0.326344 0.269451 
-0.236883 0.329857 0.268793 
-0.236882 0.329855 0.191529 
-0.236863 0.333414 0.203912 
-0.236839 0.337018 0.139826 
-0.236835 0.302837 0.364827 
-0.236827 0.290386 0.416160 
-0.236811 0.336978 0.151945 
-0.236801 0.302793 0.387760 
-0.236797 0.326204 0.264277 
-0.236790 0.340636 0.186877 
-0.236786 0.319269 0.250798 
-0.236775 0.305972 0.360776 
-0.236764 0.333274 0.192809 
-0.236762 0.309208 0.347589 
-0.236740 0.329658 0.248709 
-0.236731 0.340552 0.184658 
-0.236728 0.340547 0.161285 
-0.236725 0.305906 0.376806 
-0.236694 0.315757 0.316717 
-0.236661 0.326016 0.259126 
-0.236643 0.336738 0.214251 
-0.236639 0.296292 0.406632 
-0.236636 0.315681 0.297296 
-0.236620 0.302561 0.390860 
-0.236615 0.305765 0.366892 
-0.236615 0.319038 0.302041 
-0.236614 0.333063 0.224140 
-0.236606 0.287106 0.413187 
-0.236589 0.305731 0.379892 
-0.236587 0.319000 0.310293 
-0.236569 0.325890 0.232500 
-0.236563 0.340310 0.144734 
-0.236534 0.340269 0.150831 
-0.236518 0.305639 0.369959 
-0.236490 0.325780 0.254000 
-0.236487 0.336517 0.187441 
-0.236487 0.325776 0.261426 
-0.236487 0.340200 0.199845 
-0.236475 0.325759 0.289787 
-0.236469 0.329280 0.208790 
-0.236457 0.322257 0.274707 
-0.236451 0.318817 0.262722 
-0.236448 0.329251 0.197705 
-0.236428 0.336432 0.153741 
-0.236426 0.302314 0.393965 
-0.236425 0.318782 0.248002 
-0.236423 0.329217 0.195500 
