# .PCD v.7 - Point Cloud Data file format
VERSION .7
FIELDS x y z
SIZE 4 4 4
TYPE F F F
COUNT 1 1 1
WIDTH 1594
HEIGHT 1
POINTS 1594
DATA ascii
0.511991 -0.470761 0.328041 
0.512002 -0.480526 0.280151 
0.512009 -0.461204 0.378066 
0.512016 -0.429038 0.472113 
0.512018 -0.411512 0.504062 
0.512028 -0.442592 0.439532 
0.512038 -0.411528 0.477290 
0.512042 -0.447199 0.396479 
0.512047 -0.433540 0.435719 
0.512053 -0.500661 0.232700 
0.512073 -0.511027 0.173694 
0.512073 -0.470837 0.320703 
0.512078 -0.456546 0.364788 
0.512084 -0.442640 0.418875 
0.512091 -0.500697 0.208762 
0.512092 -0.521607 0.158720 
0.512093 -0.466046 0.322890 
0.512100 -0.470862 0.313388 
0.512114 -0.415917 0.524788 
0.512120 -0.500726 0.212170 
0.512139 -0.466087 0.315591 
0.512169 -0.415962 0.475003 
0.512170 -0.505923 0.203048 
0.512181 -0.420336 0.481404 
0.512197 -0.415985 0.466341 
0.512201 -0.456655 0.368725 
0.512208 -0.495714 0.266518 
0.512210 -0.480721 0.276718 
0.512216 -0.451989 0.344334 
0.512230 -0.461404 0.362723 
0.512240 -0.452010 0.410494 
0.512245 -0.511198 0.200706 
0.512246 -0.433708 0.558238 
0.512253 -0.407407 0.502236 
0.512254 -0.466192 0.334097 
0.512297 -0.442825 0.406889 
0.512308 -0.433760 0.444318 
0.512317 -0.447440 0.369330 
0.512323 -0.452084 0.390531 
0.512328 -0.506079 0.182902 
0.512330 -0.485785 0.267499 
0.512334 -0.429304 0.468046 
0.512352 -0.500953 0.250245 
0.512355 -0.433800 0.427699 
0.512379 -0.411802 0.546728 
0.512385 -0.480886 0.259251 
0.512403 -0.411822 0.522920 
0.512428 -0.471163 0.317250 
0.512429 -0.411843 0.541946 
0.512439 -0.416181 0.479641 
0.512459 -0.466378 0.319447 
0.512487 -0.411889 0.499981 
0.512493 -0.485939 0.264066 
0.512507 -0.496004 0.235196 
0.512540 -0.501136 0.243340 
0.512547 -0.447641 0.412952 
0.512548 -0.501144 0.195442 
0.512549 -0.506297 0.189689 
0.512558 -0.501154 0.175422 
0.512580 -0.425068 0.432452 
0.512581 -0.461720 0.355319 
0.512589 -0.420671 0.468650 
0.512595 -0.434003 0.419704 
0.512596 -0.407680 0.516332 
0.512601 -0.457012 0.361326 
0.512604 -0.511557 0.170536 
0.512610 -0.452336 0.352114 
0.512629 -0.447712 0.385084 
0.512634 -0.496127 0.221526 
0.512656 -0.471373 0.328467 
0.512682 -0.461811 0.296462 
0.512683 -0.416379 0.497709 
0.512685 -0.501279 0.202233 
0.512689 -0.429602 0.556320 
0.512689 -0.434084 0.415717 
0.512700 -0.501293 0.178790 
0.512712 -0.407772 0.525783 
0.512737 -0.501329 0.205636 
0.512756 -0.471464 0.339747 
0.512764 -0.466656 0.323312 
0.512767 -0.434150 0.411737 
0.512775 -0.501366 0.229573 
0.512777 -0.501368 0.209042 
0.512795 -0.506540 0.199905 
0.512812 -0.466700 0.316005 
0.512816 -0.443274 0.415395 
0.512828 -0.501418 0.219289 
0.512840 -0.420877 0.495421 
0.512846 -0.416511 0.502402 
0.512873 -0.434239 0.403798 
0.512876 -0.461985 0.336678 
0.512877 -0.443327 0.379667 
0.512889 -0.443337 0.411396 
0.512899 -0.481368 0.287782 
0.512915 -0.501503 0.254037 
0.512943 -0.452631 0.387054 
0.512944 -0.434299 0.444869 
0.512953 -0.412263 0.518809 
0.512963 -0.420978 0.547035 
0.512963 -0.457334 0.373147 
0.512971 -0.429838 0.434630 
0.512985 -0.443420 0.403419 
0.513005 -0.443437 0.391509 
0.513013 -0.412312 0.523543 
0.513027 -0.462122 0.329350 
0.513028 -0.429886 0.447242 
0.513039 -0.496518 0.263405 
0.513039 -0.471725 0.325003 
0.513051 -0.471736 0.303059 
0.513060 -0.412350 0.537807 
0.513066 -0.462157 0.351852 
0.513076 -0.429926 0.406208 
0.513082 -0.452753 0.363849 
0.513086 -0.481543 0.273650 
0.513102 -0.471783 0.310349 
0.513128 -0.434455 0.424232 
0.513131 -0.429972 0.430624 
0.513133 -0.506874 0.186543 
0.513144 -0.434468 0.440836 
0.513153 -0.467010 0.312566 
0.513158 -0.412428 0.487168 
0.513163 -0.399633 0.522028 
0.513163 -0.408131 0.494098 
0.513183 -0.522717 0.135776 
0.513184 -0.496659 0.259945 
0.513205 -0.481655 0.256183 
0.513246 -0.517462 0.168274 
0.513271 -0.481717 0.270219 
0.513274 -0.501854 0.162444 
0.513294 -0.501874 0.240209 
0.513299 -0.412542 0.478465 
0.513302 -0.416882 0.498311 
0.513314 -0.416892 0.484882 
0.513320 -0.448316 0.389539 
0.513326 -0.481769 0.291614 
0.513328 -0.467169 0.331072 
0.513329 -0.481772 0.252771 
0.513338 -0.452979 0.341350 
0.513340 -0.448333 0.393509 
0.513340 -0.408272 0.498770 
0.513369 -0.425723 0.489021 
0.513370 -0.412599 0.491831 
0.513381 -0.412607 0.509985 
0.513386 -0.395606 0.539055 
0.513411 -0.507149 0.196758 
0.513412 -0.395626 0.529582 
0.513418 -0.486816 0.233317 
0.513424 -0.502001 0.205911 
0.513433 -0.430226 0.451836 
0.513436 -0.430228 0.439191 
0.513444 -0.481879 0.266791 
0.513444 -0.507181 0.176611 
0.513461 -0.443831 0.415917 
0.513463 -0.417013 0.503007 
0.513474 -0.443842 0.436575 
0.513477 -0.507214 0.163327 
0.513481 -0.434754 0.408283 
0.513484 -0.412690 0.514701 
0.513486 -0.502061 0.226441 
0.513487 -0.462536 0.318609 
0.513493 -0.434764 0.432788 
0.513502 -0.434772 0.458132 
0.513507 -0.502082 0.216157 
0.513531 -0.421444 0.465179 
0.513553 -0.412746 0.483108 
0.513565 -0.412755 0.519428 
0.513578 -0.425896 0.493711 
0.513587 -0.467405 0.334966 
0.513591 -0.486980 0.254123 
0.513604 -0.453214 0.360395 
0.513605 -0.482030 0.263365 
0.513627 -0.408500 0.508148 
0.513632 -0.412809 0.543219 
0.513635 -0.443982 0.388050 
0.513638 -0.462672 0.293448 
0.513648 -0.497108 0.246139 
0.513657 -0.412829 0.474419 
0.513660 -0.444003 0.399949 
0.513668 -0.444010 0.395975 
0.513673 -0.412842 0.533671 
0.513702 -0.502273 0.250904 
0.513707 -0.472339 0.325425 
0.513707 -0.472339 0.285510 
0.513726 -0.472356 0.303457 
0.513737 -0.550764 0.139603 
0.513757 -0.453349 0.349128 
0.513758 -0.517978 0.165092 
0.513772 -0.417264 0.463458 
0.513773 -0.458057 0.358326 
0.513774 -0.435002 0.424766 
0.513774 -0.502343 0.139683 
0.513810 -0.482223 0.284710 
0.513823 -0.448755 0.378160 
0.513827 -0.467623 0.312977 
0.513827 -0.462842 0.307909 
0.513828 -0.507561 0.170077 
0.513868 -0.453447 0.368252 
0.513873 -0.413003 0.505889 
0.513889 -0.435099 0.420764 
0.513890 -0.408709 0.522298 
0.513893 -0.413019 0.453133 
0.513895 -0.430612 0.465126 
0.513943 -0.487314 0.297003 
0.513951 -0.482356 0.270577 
0.513962 -0.462964 0.333663 
0.513963 -0.408768 0.499375 
0.513985 -0.497434 0.211886 
0.513987 -0.507718 0.173460 
0.513987 -0.435183 0.416770 
0.513992 -0.448902 0.394009 
0.514004 -0.487373 0.261328 
0.514015 -0.482416 0.253109 
0.514028 -0.426269 0.429542 
0.514047 -0.430740 0.423165 
0.514084 -0.421898 0.553122 
0.514090 -0.463079 0.326334 
0.514094 -0.472695 0.307305 
0.514098 -0.413184 0.515316 
0.514113 -0.453663 0.356940 
0.514125 -0.482519 0.267145 
0.514126 -0.444406 0.376706 
0.514140 -0.463124 0.304486 
0.514152 -0.487512 0.230228 
0.514155 -0.421957 0.548307 
0.514156 -0.502716 0.166024 
0.514157 -0.430832 0.419175 
0.514165 -0.421964 0.465752 
0.514177 -0.502737 0.213022 
0.514177 -0.413247 0.520047 
0.514182 -0.413251 0.483699 
0.514182 -0.413252 0.497107 
0.514185 -0.487544 0.226829 
0.514190 -0.449075 0.366831 
0.514192 -0.426405 0.463415 
0.514202 -0.463180 0.348835 
0.514205 -0.453744 0.384065 
0.514213 -0.435374 0.400862 
0.514213 -0.487571 0.216657 
0.514218 -0.417626 0.508324 
0.514245 -0.482631 0.277818 
0.514249 -0.507977 0.143792 
0.514259 -0.400487 0.513856 
0.514260 -0.518485 0.161907 
0.514271 -0.507999 0.180242 
0.514271 -0.458501 0.354861 
0.514285 -0.435435 0.429311 
0.514288 -0.482671 0.263716 
0.514312 -0.444566 0.400456 
0.514315 -0.444569 0.392509 
0.514322 -0.444575 0.396479 
0.514338 -0.400548 0.518562 
0.514342 -0.426529 0.438095 
0.514354 -0.409078 0.513470 
0.514391 -0.487739 0.251032 
0.514391 -0.468137 0.328041 
0.514414 -0.409126 0.495302 
0.514414 -0.513363 0.181210 
0.514415 -0.497851 0.243018 
0.514420 -0.435549 0.441933 
0.514425 -0.400615 0.537494 
0.514427 -0.400617 0.528007 
0.514430 -0.431061 0.403283 
0.514437 -0.482812 0.260290 
0.514461 -0.487806 0.290054 
0.514471 -0.508196 0.157022 
0.514475 -0.426640 0.459364 
0.514476 -0.503030 0.139874 
0.514480 -0.503033 0.247767 
0.514492 -0.413500 0.506497 
0.514505 -0.473073 0.337139 
0.514505 -0.513454 0.167824 
0.514510 -0.508235 0.187044 
0.514515 -0.463462 0.315591 
0.514519 -0.431135 0.444318 
0.514534 -0.503086 0.192830 
0.514536 -0.435647 0.421294 
0.514542 -0.417889 0.499514 
0.514561 -0.413556 0.479641 
0.514566 -0.431175 0.427699 
0.514576 -0.482942 0.256867 
0.514584 -0.463524 0.290429 
0.514607 -0.435707 0.437898 
0.514609 -0.454101 0.353488 
0.514620 -0.473178 0.282463 
0.514628 -0.449458 0.390531 
0.514631 -0.409299 0.486573 
0.514636 -0.435732 0.417296 
0.514641 -0.503191 0.176136 
0.514644 -0.498072 0.208762 
0.514663 -0.468384 0.331933 
0.514689 -0.418008 0.477340 
0.514696 -0.473248 0.300409 
0.514698 -0.498124 0.218996 
0.514747 -0.422442 0.432452 
0.514750 -0.503297 0.203048 
0.514753 -0.518981 0.158720 
0.514787 -0.418088 0.490737 
0.514789 -0.413739 0.520666 
0.514796 -0.488123 0.233943 
0.514801 -0.454270 0.380584 
0.514807 -0.431377 0.419704 
0.514816 -0.483167 0.250031 
0.514816 -0.426923 0.426087 
0.514827 -0.488152 0.258235 
0.514829 -0.445014 0.412952 
0.514832 -0.468538 0.309943 
0.514836 -0.435901 0.405343 
0.514836 -0.503382 0.209882 
0.514846 -0.409470 0.491232 
0.514856 -0.463769 0.312155 
0.514876 -0.488199 0.227134 
0.514879 -0.488201 0.293910 
0.514886 -0.435943 0.393456 
0.514898 -0.488220 0.223735 
0.514902 -0.431457 0.415717 
0.514908 -0.503451 0.136733 
0.514911 -0.445085 0.385084 
0.514918 -0.483263 0.246618 
0.514922 -0.413846 0.475587 
0.514951 -0.418221 0.481992 
0.514954 -0.508673 0.153865 
0.514957 -0.488276 0.254799 
0.514969 -0.413884 0.502402 
0.514969 -0.513917 0.178037 
0.514985 -0.418249 0.495421 
0.515007 -0.427080 0.486107 
0.515009 -0.401070 0.523906 
0.515019 -0.513967 0.164651 
0.515038 -0.413939 0.488952 
0.515039 -0.463934 0.330642 
0.515044 -0.418297 0.443353 
0.515054 -0.422694 0.479677 
0.515096 -0.422728 0.462276 
0.515111 -0.463999 0.341898 
0.515122 -0.483454 0.260636 
0.515122 -0.454553 0.338802 
0.515123 -0.464009 0.301464 
0.515124 -0.483457 0.274738 
0.515126 -0.409692 0.473834 
0.515131 -0.503670 0.189689 
0.515143 -0.464028 0.323312 
0.515150 -0.468828 0.306499 
0.515156 -0.519388 0.135594 
0.515172 -0.498583 0.239892 
0.515181 -0.488488 0.247937 
0.515184 -0.436195 0.421824 
0.515189 -0.454613 0.369198 
0.515191 -0.414062 0.480229 
0.515204 -0.449961 0.383088 
0.515212 -0.431716 0.428236 
0.515229 -0.418447 0.451941 
0.515230 -0.414093 0.511822 
0.515230 -0.459356 0.347935 
0.515238 -0.397033 0.526749 
0.515244 -0.397038 0.536222 
0.515248 -0.473756 0.293523 
0.515261 -0.483584 0.257209 
0.515265 -0.414122 0.471539 
0.515282 -0.450029 0.391027 
0.515294 -0.498701 0.205636 
0.515294 -0.454705 0.373147 
0.515301 -0.464170 0.334532 
0.515302 -0.473806 0.282837 
0.515328 -0.464194 0.345812 
0.515337 -0.418535 0.460566 
0.515343 -0.431826 0.424232 
0.515364 -0.445476 0.373737 
0.515370 -0.436354 0.413827 
0.515372 -0.473870 0.300804 
0.515378 -0.503912 0.199905 
0.515380 -0.498784 0.215869 
0.515383 -0.454784 0.377104 
0.515388 -0.483704 0.253785 
0.515390 -0.450124 0.363849 
0.515391 -0.509105 0.194125 
0.515422 -0.459527 0.351852 
0.515429 -0.414254 0.450252 
0.515445 -0.431911 0.462196 
0.515451 -0.436422 0.382129 
0.515475 -0.504006 0.179758 
0.515489 -0.483799 0.267854 
0.515503 -0.483812 0.250365 
0.515506 -0.473993 0.290083 
0.515512 -0.464360 0.319865 
0.515521 -0.464368 0.287405 
0.515522 -0.474008 0.279410 
0.515522 -0.514469 0.161474 
0.515532 -0.488821 0.230846 
0.515543 -0.431993 0.436809 
0.515543 -0.436500 0.397919 
0.515583 -0.474064 0.334086 
0.515586 -0.450294 0.352572 
0.515590 -0.488876 0.224036 
0.515602 -0.488887 0.220637 
0.515606 -0.445685 0.389539 
0.515606 -0.483909 0.246948 
0.515609 -0.414398 0.433708 
0.515634 -0.432070 0.412260 
0.515656 -0.474131 0.297356 
0.515669 -0.410124 0.519428 
0.515678 -0.423206 0.441558 
0.515682 -0.410134 0.548007 
0.515698 -0.483994 0.243535 
0.515709 -0.432133 0.432788 
0.515718 -0.504244 0.186543 
0.515721 -0.450413 0.375661 
0.515730 -0.455090 0.365727 
0.515731 -0.423249 0.462846 
0.515744 -0.432162 0.404313 
0.515761 -0.455117 0.350490 
0.515772 -0.414529 0.429728 
0.515777 -0.484069 0.240125 
0.515806 -0.484096 0.260982 
0.515818 -0.418925 0.487247 
0.515820 -0.414568 0.454832 
0.515822 -0.504346 0.189943 
0.515846 -0.414589 0.512434 
0.515863 -0.464676 0.309129 
0.515865 -0.450539 0.345234 
0.515868 -0.464680 0.316420 
0.515869 -0.423363 0.437546 
0.515871 -0.499260 0.199103 
0.515887 -0.436791 0.438987 
0.515907 -0.450574 0.387546 
0.515934 -0.499320 0.202505 
0.515961 -0.489227 0.244837 
0.515968 -0.455300 0.331925 
0.515993 -0.484272 0.271653 
0.516000 -0.432376 0.441384 
0.516013 -0.427915 0.456443 
0.516016 -0.514962 0.158295 
0.516021 -0.436904 0.414350 
0.516035 -0.410415 0.479053 
0.516050 -0.414753 0.498913 
0.516074 -0.484348 0.254123 
0.516091 -0.436964 0.410358 
0.516095 -0.464885 0.298436 
0.516100 -0.410467 0.492429 
0.516103 -0.410469 0.510597 
0.516106 -0.464895 0.327614 
0.516112 -0.423562 0.446131 
0.516134 -0.469723 0.303457 
0.516139 -0.504655 0.143597 
0.516178 -0.446179 0.382111 
0.516181 -0.437040 0.402396 
0.516183 -0.469768 0.310756 
0.516187 -0.414863 0.476756 
0.516188 -0.446188 0.409979 
0.516189 -0.414865 0.459425 
0.516190 -0.401990 0.520430 
0.516190 -0.484457 0.250699 
0.516191 -0.437048 0.390509 
0.516201 -0.423635 0.429542 
0.516204 -0.437059 0.394464 
0.516206 -0.432549 0.416770 
0.516207 -0.419241 0.483168 
0.516233 -0.455534 0.347035 
0.516235 -0.419264 0.553122 
0.516236 -0.446230 0.405975 
0.516240 -0.402029 0.525158 
0.516243 -0.428106 0.423165 
0.516252 -0.419278 0.457098 
0.516253 -0.515199 0.141782 
0.516258 -0.455556 0.362257 
0.516264 -0.499640 0.250904 
0.516270 -0.402052 0.534644 
0.516280 -0.474704 0.265728 
0.516288 -0.410617 0.483699 
0.516295 -0.504808 0.183394 
0.516309 -0.414961 0.446803 
0.516321 -0.450937 0.341796 
0.516322 -0.423735 0.442110 
0.516336 -0.484594 0.264766 
0.516341 -0.423750 0.425550 
0.516343 -0.510045 0.144377 
0.516356 -0.437188 0.426900 
0.516359 -0.460362 0.344920 
0.516364 -0.504876 0.156810 
0.516370 -0.423774 0.494306 
0.516372 -0.428213 0.478507 
0.516380 -0.465142 0.331503 
0.516410 -0.504920 0.186794 
0.516414 -0.474828 0.276351 
0.516426 -0.451028 0.356940 
0.516429 -0.469992 0.300015 
0.516433 -0.474845 0.287025 
0.516452 -0.415076 0.481404 
0.516458 -0.451056 0.380099 
0.516462 -0.415084 0.455399 
0.516485 -0.465237 0.302261 
0.516490 -0.465241 0.324157 
0.516493 -0.415108 0.494822 
0.516500 -0.515445 0.155113 
0.516504 -0.470060 0.307305 
0.516512 -0.419489 0.453066 
0.516525 -0.423901 0.450718 
0.516534 -0.415142 0.472700 
0.516536 -0.484781 0.237036 
0.516537 -0.415144 0.464031 
0.516555 -0.415158 0.517779 
0.516574 -0.415174 0.551204 
0.516577 -0.505083 0.173460 
0.516582 -0.505088 0.140446 
0.516583 -0.437381 0.418875 
0.516593 -0.446539 0.370761 
0.516631 -0.484871 0.257893 
0.516634 -0.428430 0.483183 
0.516638 -0.484877 0.230228 
0.516650 -0.424003 0.459364 
0.516658 -0.419608 0.492521 
0.516718 -0.437495 0.379179 
0.516721 -0.451285 0.364788 
0.516731 -0.489958 0.241732 
0.516738 -0.402417 0.516332 
0.516739 -0.410975 0.470958 
0.516739 -0.451302 0.349582 
0.516743 -0.428520 0.553396 
0.516744 -0.437516 0.410877 
0.516754 -0.510451 0.174394 
0.516755 -0.419686 0.449040 
0.516757 -0.505259 0.200439 
0.516778 -0.385732 0.512960 
0.516791 -0.377574 0.504569 
0.516795 -0.475179 0.269502 
0.516803 -0.490026 0.238306 
0.516808 -0.402471 0.521053 
0.516813 -0.470340 0.303856 
0.516830 -0.415379 0.459996 
0.516840 -0.505341 0.143792 
0.516851 -0.424169 0.430083 
0.516860 -0.437615 0.431460 
0.516861 -0.465575 0.306097 
0.516861 -0.465575 0.320703 
0.516864 -0.415407 0.468650 
0.516889 -0.475265 0.280151 
0.516892 -0.419798 0.457664 
0.516899 -0.456122 0.336240 
0.516905 -0.419808 0.548943 
0.516916 -0.424222 0.455317 
0.516933 -0.419831 0.475023 
0.516941 -0.433165 0.413305 
0.516951 -0.451487 0.372670 
0.516951 -0.419846 0.466326 
0.516974 -0.515918 0.151927 
0.516983 -0.485201 0.247607 
0.516986 -0.433202 0.459257 
0.516993 -0.424285 0.426087 
0.517015 -0.505512 0.137292 
0.517018 -0.411197 0.458286 
0.517050 -0.456254 0.328919 
0.517053 -0.398432 0.523906 
0.517056 -0.424337 0.556320 
0.517057 -0.465752 0.295402 
0.517087 -0.505582 0.147144 
0.517105 -0.415600 0.455965 
0.517113 -0.505608 0.170306 
0.517128 -0.475485 0.262665 
0.517139 -0.428849 0.448909 
0.517155 -0.510847 0.184625 
0.517163 -0.465848 0.324580 
0.517167 -0.465851 0.302660 
0.517175 -0.451683 0.384554 
0.517176 -0.415658 0.443353 
0.517184 -0.500530 0.196232 
0.517228 -0.485430 0.237354 
0.517247 -0.428938 0.558878 
0.517248 -0.451746 0.361326 
0.517250 -0.420089 0.462276 
0.517252 -0.470740 0.279039 
0.517266 -0.505758 0.160392 
0.517285 -0.485485 0.233943 
0.517287 -0.424526 0.459930 
0.517291 -0.510981 0.171223 
0.517297 -0.475640 0.273288 
0.517308 -0.386127 0.508903 
0.517316 -0.485514 0.258235 
0.517319 -0.456492 0.332794 
0.517340 -0.424570 0.434630 
0.517344 -0.438025 0.436034 
0.517346 -0.429021 0.474999 
0.517362 -0.415807 0.451941 
0.517364 -0.456531 0.344027 
0.517365 -0.485560 0.227134 
0.517376 -0.411482 0.471539 
0.517377 -0.505866 0.197284 
0.517384 -0.485577 0.213563 
0.517392 -0.470868 0.296965 
0.517396 -0.438069 0.411396 
0.517428 -0.420233 0.554401 
0.517434 -0.447265 0.379130 
0.517438 -0.505926 0.134136 
0.517439 -0.456597 0.359249 
0.517439 -0.516382 0.148739 
0.517439 -0.451913 0.338802 
0.517447 -0.485636 0.254799 
0.517450 -0.466106 0.328467 
0.517452 -0.511140 0.161258 
0.517453 -0.438117 0.407404 
0.517459 -0.470929 0.275618 
0.517470 -0.415894 0.460566 
0.517470 -0.402987 0.526409 
0.517477 -0.461359 0.341898 
0.517486 -0.438145 0.387554 
0.517491 -0.490679 0.238623 
0.517492 -0.403004 0.535909 
0.517493 -0.438150 0.403419 
0.517501 -0.415918 0.469227 
0.517507 -0.451972 0.369198 
0.517513 -0.438167 0.391509 
0.517523 -0.438176 0.395471 
0.517541 -0.429182 0.453514 
0.517541 -0.506027 0.143987 
0.517556 -0.506041 0.180484 
0.517573 -0.456716 0.336678 
0.517593 -0.500926 0.169619 
0.517666 -0.411713 0.476172 
0.517688 -0.476000 0.298528 
0.517702 -0.452143 0.377104 
0.517718 -0.471165 0.282837 
0.517723 -0.511408 0.181452 
0.517727 -0.452164 0.324201 
0.517737 -0.511423 0.154697 
0.517762 -0.506242 0.157234 
0.517766 -0.485936 0.244511 
0.517771 -0.424924 0.422631 
0.517777 -0.466400 0.343667 
0.517777 -0.411801 0.489547 
0.517778 -0.403226 0.508148 
0.517784 -0.476088 0.277084 
0.517788 -0.506267 0.147343 
0.517794 -0.501121 0.193089 
0.517795 -0.420531 0.454192 
0.517803 -0.416162 0.473862 
0.517809 -0.424955 0.439191 
0.517809 -0.424955 0.486694 
0.517812 -0.456927 0.340571 
0.517812 -0.447592 0.367778 
0.517817 -0.511501 0.168049 
0.517824 -0.416178 0.443909 
0.517835 -0.420563 0.441558 
0.517839 -0.420567 0.480261 
0.517883 -0.452301 0.346585 
0.517889 -0.403313 0.512854 
0.517893 -0.516835 0.145548 
0.517896 -0.466508 0.317664 
0.517953 -0.416282 0.487247 
0.517973 -0.425089 0.414665 
0.517978 -0.486135 0.234256 
0.517988 -0.390775 0.520776 
0.518021 -0.403416 0.464033 
0.518023 -0.506498 0.150705 
0.518025 -0.486179 0.230846 
0.518033 -0.425138 0.491386 
0.518042 -0.420731 0.450159 
0.518048 -0.438621 0.411915 
0.518081 -0.452474 0.350490 
0.518085 -0.416388 0.478509 
0.518106 -0.403482 0.531783 
0.518107 -0.438670 0.407919 
0.518108 -0.438671 0.384099 
0.518114 -0.506587 0.177324 
0.518121 -0.457199 0.325908 
0.518137 -0.416430 0.469804 
0.518143 -0.466730 0.299620 
0.518156 -0.506627 0.163989 
0.518171 -0.452552 0.369671 
0.518174 -0.438727 0.392009 
0.518182 -0.438734 0.395975 
0.518194 -0.425271 0.456443 
0.518213 -0.511892 0.151520 
0.518216 -0.416494 0.435901 
0.518217 -0.486359 0.269271 
0.518226 -0.476494 0.291614 
0.518235 -0.506705 0.207841 
0.518247 -0.506717 0.154073 
0.518271 -0.420917 0.446131 
0.518281 -0.511960 0.178275 
0.518289 -0.501600 0.186543 
0.518311 -0.416570 0.514883 
0.518317 -0.491462 0.208203 
0.518343 -0.452703 0.343135 
0.518346 -0.471736 0.293910 
0.518351 -0.491494 0.181425 
0.518374 -0.491515 0.221823 
0.518386 -0.416630 0.431907 
0.518394 -0.501702 0.189943 
0.518425 -0.425460 0.423165 
0.518429 -0.434411 0.398426 
0.518438 -0.416672 0.474442 
0.518447 -0.425479 0.452395 
0.518453 -0.416684 0.465752 
0.518479 -0.448168 0.368252 
0.518488 -0.506953 0.147543 
0.518497 -0.395335 0.528007 
0.518505 -0.506969 0.170765 
0.518510 -0.403797 0.513470 
0.518528 -0.471902 0.269144 
0.518536 -0.425552 0.419175 
0.518537 -0.421133 0.472113 
0.518539 -0.486661 0.241411 
0.518539 -0.416753 0.427919 
0.518548 -0.452881 0.335801 
0.518564 -0.378869 0.501772 
0.518567 -0.387067 0.510141 
0.518578 -0.412438 0.455399 
0.518580 -0.399608 0.506924 
0.518586 -0.462347 0.338870 
0.518642 -0.430095 0.445973 
0.518642 -0.476877 0.295457 
0.518644 -0.439125 0.376706 
0.518650 -0.416843 0.453066 
0.518650 -0.391275 0.526119 
0.518653 -0.412498 0.464031 
0.518660 -0.403914 0.522920 
0.518662 -0.507123 0.174161 
0.518663 -0.507123 0.160825 
0.518669 -0.476902 0.274013 
0.518678 -0.512352 0.148340 
0.518678 -0.507138 0.194383 
0.518679 -0.416865 0.440454 
0.518681 -0.448343 0.376142 
0.518695 -0.467228 0.292750 
0.518696 -0.453011 0.328489 
0.518702 -0.421268 0.550852 
0.518707 -0.425692 0.411215 
0.518716 -0.453028 0.366197 
0.518718 -0.486829 0.231155 
0.518723 -0.507182 0.150909 
0.518723 -0.486834 0.207363 
0.518745 -0.403979 0.499981 
0.518754 -0.486863 0.227743 
0.518758 -0.486867 0.210749 
0.518774 -0.416942 0.470381 
0.518779 -0.486886 0.224336 
0.518787 -0.453090 0.321199 
0.518792 -0.486898 0.217534 
0.518796 -0.477018 0.256525 
0.518809 -0.507266 0.177562 
0.518811 -0.421356 0.459364 
0.518817 -0.387254 0.483454 
0.518865 -0.472209 0.241581 
0.518868 -0.417018 0.436450 
0.518869 -0.502161 0.183394 
0.518879 -0.507334 0.204676 
0.518881 -0.448516 0.360860 
0.518894 -0.417038 0.449040 
0.518896 -0.404097 0.504671 
0.518909 -0.512580 0.151724 
0.518921 -0.492034 0.178307 
0.518921 -0.467431 0.314620 
0.518936 -0.430339 0.472062 
0.518944 -0.507397 0.180968 
0.518957 -0.448582 0.327197 
0.518968 -0.453248 0.332360 
0.518972 -0.492082 0.205084 
0.518974 -0.434868 0.410877 
0.518981 -0.412759 0.468650 
0.519017 -0.453291 0.343581 
0.519021 -0.448637 0.364788 
0.519026 -0.404198 0.509373 
0.519028 -0.472357 0.294296 
0.519033 -0.507485 0.167599 
0.519033 -0.472361 0.272925 
0.519040 -0.448654 0.349582 
0.519067 -0.434947 0.402907 
0.519068 -0.487158 0.266167 
0.519071 -0.492177 0.218704 
0.519080 -0.458046 0.330211 
0.519083 -0.387452 0.506081 
0.519109 -0.467600 0.296574 
0.519123 -0.395813 0.533378 
0.519130 -0.421615 0.442662 
0.519159 -0.507609 0.157659 
0.519169 -0.467654 0.275252 
0.519170 -0.421648 0.472690 
0.519172 -0.391668 0.517317 
0.519188 -0.404324 0.482517 
0.519216 -0.395884 0.501019 
0.519225 -0.453473 0.336240 
0.519226 -0.448815 0.353488 
0.519228 -0.453476 0.347485 
0.519229 -0.487309 0.241732 
0.519235 -0.462926 0.320703 
0.519243 -0.387572 0.492717 
0.519262 -0.462951 0.313388 
0.519280 -0.507726 0.191216 
0.519282 -0.492377 0.139110 
0.519289 -0.472594 0.290849 
0.519294 -0.413008 0.464605 
0.519302 -0.487377 0.238306 
0.519325 -0.426199 0.448909 
0.519326 -0.421774 0.438643 
0.519329 -0.421777 0.451277 
0.519348 -0.477526 0.260290 
0.519358 -0.507802 0.174394 
0.519359 -0.395993 0.505699 
0.519361 -0.507805 0.161042 
0.519363 -0.487434 0.234883 
0.519375 -0.513040 0.148540 
0.519378 -0.487449 0.204257 
0.519382 -0.439750 0.381133 
0.519389 -0.439756 0.358066 
0.519392 -0.417438 0.462276 
0.519392 -0.472688 0.266082 
0.519397 -0.448962 0.357402 
0.519415 -0.439778 0.408949 
0.519423 -0.387706 0.497366 
0.519423 -0.507867 0.151113 
0.519427 -0.477598 0.232690 
0.519440 -0.502713 0.180242 
0.519449 -0.487515 0.228048 
0.519459 -0.387733 0.484052 
0.519460 -0.439816 0.404953 
0.519460 -0.421884 0.477346 
0.519466 -0.453683 0.340129 
0.519474 -0.487539 0.224637 
0.519474 -0.439828 0.389042 
0.519477 -0.458396 0.326761 
0.519479 -0.487543 0.214428 
0.519496 -0.439846 0.393009 
0.519503 -0.507945 0.177799 
0.519522 -0.404585 0.505280 
0.519536 -0.458448 0.304889 
0.519542 -0.463200 0.302660 
0.519544 -0.477706 0.270936 
0.519551 -0.507991 0.164430 
0.519562 -0.421966 0.447242 
0.519567 -0.404620 0.478465 
0.519570 -0.417582 0.554401 
0.519613 -0.404656 0.461164 
0.519615 -0.477771 0.253447 
0.519640 -0.468078 0.289701 
0.519640 -0.472914 0.238518 
0.519645 -0.508083 0.144572 
0.519646 -0.508085 0.154489 
0.519647 -0.453841 0.332794 
0.519684 -0.463327 0.335835 
0.519694 -0.417681 0.432996 
0.519718 -0.492790 0.135987 
0.519720 -0.435493 0.387554 
0.519726 -0.435499 0.403419 
0.519730 -0.417710 0.466899 
0.519737 -0.487785 0.248926 
0.519746 -0.435516 0.391509 
0.519756 -0.435524 0.395471 
0.519759 -0.492829 0.215581 
0.519760 -0.508196 0.184625 
0.519768 -0.417741 0.445576 
0.519777 -0.422141 0.443214 
0.519825 -0.388006 0.511379 
0.519836 -0.404829 0.519428 
0.519837 -0.463463 0.299225 
0.519841 -0.458717 0.301464 
0.519846 -0.503106 0.160392 
0.519850 -0.417807 0.429001 
0.519862 -0.458736 0.323312 
0.519871 -0.508305 0.188046 
0.519876 -0.379828 0.450839 
0.519886 -0.468300 0.286268 
0.519890 -0.508323 0.147942 
0.519893 -0.440183 0.373737 
0.519894 -0.413484 0.552483 
0.519897 -0.508330 0.171223 
0.519910 -0.487948 0.263059 
0.519914 -0.454075 0.363188 
0.519920 -0.487957 0.242054 
0.519926 -0.431161 0.405859 
0.519936 -0.468345 0.311570 
0.519939 -0.417878 0.454192 
0.519945 -0.404914 0.533671 
0.519972 -0.473216 0.291231 
0.519974 -0.449461 0.342689 
0.519979 -0.417910 0.441558 
0.519979 -0.388121 0.520776 
0.519990 -0.417919 0.425012 
0.519996 -0.400699 0.494700 
0.520000 -0.503255 0.177086 
0.520003 -0.478128 0.239804 
0.520023 -0.488054 0.201147 
0.520048 -0.440314 0.381622 
0.520053 -0.508482 0.174628 
0.520056 -0.454198 0.329350 
0.520057 -0.468454 0.272200 
0.520068 -0.449542 0.357864 
0.520071 -0.478190 0.236402 
0.520075 -0.413628 0.487247 
0.520089 -0.426827 0.408283 
0.520099 -0.400779 0.522298 
0.520100 -0.440358 0.385576 
0.520105 -0.488131 0.231773 
0.520112 -0.418017 0.421030 
0.520123 -0.508551 0.151316 
0.520128 -0.413671 0.452503 
0.520131 -0.422428 0.469194 
0.520133 -0.396583 0.492894 
0.520142 -0.454273 0.340571 
0.520146 -0.440397 0.401471 
0.520156 -0.488179 0.211317 
0.520169 -0.478281 0.229609 
0.520184 -0.488205 0.221526 
0.520185 -0.493233 0.175422 
0.520186 -0.488207 0.218119 
0.520186 -0.418077 0.450159 
0.520189 -0.449647 0.346585 
0.520193 -0.454318 0.314761 
0.520202 -0.508628 0.201775 
0.520213 -0.440454 0.362441 
0.520213 -0.388296 0.502638 
0.520215 -0.463800 0.325003 
0.520220 -0.449674 0.361791 
0.520223 -0.473444 0.287782 
0.520233 -0.413754 0.461135 
0.520234 -0.459064 0.319865 
0.520259 -0.413775 0.469804 
0.520273 -0.454388 0.355777 
0.520273 -0.405170 0.510597 
0.520274 -0.463853 0.317664 
0.520278 -0.463857 0.310349 
0.520321 -0.388377 0.489283 
0.520324 -0.396728 0.525158 
0.520327 -0.380157 0.498965 
0.520327 -0.400955 0.504062 
0.520344 -0.503588 0.157234 
0.520346 -0.388395 0.507313 
0.520346 -0.508768 0.154697 
0.520347 -0.418207 0.433541 
0.520357 -0.449792 0.365727 
0.520376 -0.405249 0.515316 
0.520385 -0.436051 0.388050 
0.520410 -0.478502 0.267854 
0.520410 -0.436072 0.399949 
0.520416 -0.418262 0.446131 
0.520426 -0.508847 0.168049 
0.520435 -0.454529 0.359711 
0.520453 -0.508873 0.184871 
0.520453 -0.493487 0.215869 
0.520461 -0.405316 0.497107 
0.520490 -0.488492 0.191277 
0.520502 -0.464056 0.328894 
0.520502 -0.388512 0.480625 
0.520506 -0.418334 0.429542 
0.520524 -0.488524 0.245814 
0.520528 -0.459324 0.301862 
0.520547 -0.405383 0.539073 
0.520548 -0.405383 0.457715 
0.520550 -0.503788 0.173927 
0.520557 -0.508975 0.158083 
0.520569 -0.405400 0.475003 
0.520576 -0.478654 0.264416 
0.520576 -0.440761 0.355094 
0.520588 -0.459377 0.309129 
0.520593 -0.509010 0.171452 
0.520601 -0.464144 0.306902 
0.520655 -0.401207 0.518189 
0.520658 -0.488650 0.198034 
0.520672 -0.418468 0.463415 
0.520685 -0.488675 0.238940 
0.520714 -0.440877 0.382111 
0.520735 -0.493755 0.172293 
0.520751 -0.469079 0.293910 
0.520757 -0.509170 0.161474 
0.520766 -0.454818 0.352306 
0.520772 -0.473944 0.249363 
0.520774 -0.405560 0.506497 
0.520779 -0.450156 0.317353 
0.520799 -0.440950 0.390035 
0.520803 -0.401322 0.499981 
0.520804 -0.440954 0.401979 
0.520806 -0.422977 0.435719 
0.520806 -0.464327 0.296183 
0.520809 -0.469132 0.283212 
0.520819 -0.440967 0.397990 
0.520823 -0.509235 0.151520 
0.520823 -0.488805 0.208203 
0.520826 -0.509238 0.198599 
0.520827 -0.504055 0.144182 
0.520832 -0.504060 0.154073 
0.520835 -0.454879 0.322467 
0.520847 -0.388769 0.503250 
0.520854 -0.469172 0.255157 
0.520874 -0.474037 0.245959 
0.520875 -0.493887 0.195705 
0.520875 -0.488854 0.215004 
0.520884 -0.488862 0.218412 
0.520897 -0.397165 0.521053 
0.520903 -0.405660 0.493027 
0.520907 -0.474067 0.288161 
0.520923 -0.431987 0.422884 
0.520934 -0.469244 0.269144 
0.520941 -0.469250 0.308513 
0.520945 -0.509355 0.164872 
0.520950 -0.397205 0.498165 
0.520955 -0.436528 0.380645 
0.520961 -0.388854 0.489885 
0.520969 -0.393024 0.514475 
0.521011 -0.436575 0.384591 
0.521013 -0.494018 0.202505 
0.521020 -0.414380 0.449040 
0.521064 -0.494067 0.205911 
0.521097 -0.450432 0.321199 
0.521101 -0.414444 0.483755 
0.521103 -0.455113 0.360173 
0.521118 -0.479153 0.250699 
0.521123 -0.509528 0.168274 
0.521132 -0.494131 0.212738 
0.521133 -0.441232 0.370761 
0.521133 -0.455139 0.326334 
0.521146 -0.388993 0.481220 
0.521157 -0.389001 0.494533 
0.521201 -0.397397 0.489437 
0.521223 -0.479250 0.247278 
0.521231 -0.441316 0.374699 
0.521242 -0.405924 0.466919 
0.521244 -0.450559 0.354861 
0.521248 -0.401664 0.482517 
0.521257 -0.405936 0.502402 
0.521267 -0.389083 0.526749 
0.521273 -0.423356 0.440288 
0.521273 -0.459981 0.309536 
0.521274 -0.504488 0.141018 
0.521275 -0.459983 0.316835 
0.521276 -0.494267 0.169160 
0.521279 -0.418955 0.442662 
0.521283 -0.489237 0.194916 
0.521285 -0.432287 0.402907 
0.521304 -0.418976 0.426087 
0.521310 -0.504523 0.150909 
0.521313 -0.441385 0.378645 
0.521327 -0.405990 0.488952 
0.521328 -0.450632 0.343581 
0.521363 -0.423429 0.419704 
0.521429 -0.441483 0.386561 
0.521440 -0.489384 0.235822 
0.521441 -0.509839 0.195419 
0.521447 -0.464898 0.333225 
0.521457 -0.423505 0.436264 
0.521459 -0.380985 0.448025 
0.521460 -0.414730 0.424475 
0.521460 -0.423507 0.415717 
0.521462 -0.427953 0.405343 
0.521466 -0.474576 0.267145 
0.521479 -0.419116 0.451277 
0.521481 -0.489422 0.205084 
0.521492 -0.489433 0.232391 
0.521498 -0.469752 0.283587 
0.521511 -0.460191 0.298830 
0.521524 -0.479527 0.233630 
0.521535 -0.406153 0.493626 
0.521554 -0.489491 0.211886 
0.521561 -0.441595 0.348220 
0.521574 -0.489509 0.215293 
0.521608 -0.389337 0.508544 
0.521621 -0.504824 0.167599 
0.521624 -0.437088 0.381133 
0.521631 -0.474726 0.263716 
0.521649 -0.494621 0.199370 
0.521668 -0.406256 0.549925 
0.521676 -0.469913 0.252095 
0.521678 -0.437134 0.385084 
0.521687 -0.489616 0.185041 
0.521699 -0.469933 0.290849 
0.521711 -0.504911 0.137852 
0.521722 -0.469954 0.280151 
0.521743 -0.437188 0.396983 
0.521753 -0.441758 0.352114 
0.521766 -0.465183 0.293136 
0.521775 -0.432693 0.415395 
0.521778 -0.504976 0.147742 
0.521789 -0.381226 0.380662 
0.521795 -0.389477 0.517940 
0.521801 -0.494765 0.209602 
0.521803 -0.415003 0.458231 
0.521803 -0.441800 0.371238 
0.521807 -0.494771 0.166024 
0.521832 -0.474909 0.285085 
0.521844 -0.406393 0.458856 
0.521865 -0.474939 0.303173 
0.521897 -0.415078 0.445576 
0.521900 -0.460535 0.324580 
0.521948 -0.510335 0.188797 
0.521961 -0.406484 0.489547 
0.521962 -0.419504 0.426624 
0.521981 -0.441951 0.379130 
0.521987 -0.489897 0.195179 
0.522012 -0.479976 0.244186 
0.522022 -0.423964 0.420234 
0.522026 -0.406535 0.507715 
0.522051 -0.470251 0.238518 
0.522114 -0.389715 0.504475 
0.522127 -0.393898 0.511007 
0.522128 -0.490030 0.201962 
0.522130 -0.495077 0.159526 
0.522137 -0.437519 0.373737 
0.522138 -0.505325 0.134683 
0.522141 -0.505328 0.164430 
0.522141 -0.398114 0.522298 
0.522160 -0.428525 0.401885 
0.522178 -0.389762 0.477786 
0.522179 -0.406654 0.442242 
0.522182 -0.490080 0.205360 
0.522199 -0.406670 0.472120 
0.522223 -0.437591 0.377675 
0.522223 -0.490119 0.208762 
0.522242 -0.415352 0.421030 
0.522254 -0.490147 0.212170 
0.522257 -0.442184 0.337475 
0.522265 -0.424162 0.408283 
0.522269 -0.480212 0.230537 
0.522277 -0.424171 0.432788 
0.522281 -0.456142 0.357151 
0.522304 -0.480244 0.227134 
0.522307 -0.460893 0.313798 
0.522324 -0.475356 0.264066 
0.522327 -0.495264 0.162885 
0.522338 -0.433161 0.419927 
0.522348 -0.495284 0.199637 
0.522359 -0.394073 0.484194 
0.522360 -0.456211 0.334532 
0.522393 -0.490278 0.185291 
0.522413 -0.470576 0.280521 
0.522429 -0.424294 0.428773 
0.522441 -0.402583 0.515316 
0.522458 -0.451608 0.340571 
0.522469 -0.451617 0.322044 
0.522469 -0.428779 0.422354 
0.522474 -0.389984 0.542252 
0.522477 -0.475496 0.260636 
0.522479 -0.389987 0.523280 
0.522489 -0.470644 0.249030 
0.522505 -0.480429 0.251366 
0.522513 -0.406914 0.503613 
0.522523 -0.390020 0.532745 
0.522548 -0.415595 0.446131 
0.522563 -0.424403 0.424766 
0.522564 -0.475575 0.233004 
0.522596 -0.381815 0.461667 
0.522603 -0.490475 0.192054 
0.522610 -0.456429 0.338432 
0.522614 -0.406992 0.446803 
0.522619 -0.420032 0.427162 
0.522626 -0.470768 0.277084 
0.522637 -0.470778 0.287782 
0.522663 -0.475665 0.216073 
0.522690 -0.490557 0.195442 
0.522700 -0.398540 0.518189 
0.522708 -0.437997 0.370284 
0.522711 -0.442569 0.383576 
0.522716 -0.442573 0.345234 
0.522716 -0.466030 0.290083 
0.522719 -0.490585 0.162223 
0.522747 -0.475741 0.253785 
0.522747 -0.475742 0.282004 
0.522749 -0.420136 0.423165 
0.522755 -0.461289 0.292363 
0.522759 -0.402829 0.488357 
0.522759 -0.424563 0.437354 
0.522766 -0.490628 0.198836 
0.522769 -0.407113 0.455399 
0.522769 -0.451877 0.325908 
0.522775 -0.456573 0.331072 
0.522779 -0.420161 0.439739 
0.522824 -0.390245 0.478377 
0.522830 -0.490689 0.202233 
0.522839 -0.475825 0.300091 
0.522845 -0.407172 0.464031 
0.522854 -0.451950 0.311334 
0.522861 -0.420227 0.419175 
0.522863 -0.424647 0.412782 
0.522881 -0.382023 0.474830 
0.522883 -0.490738 0.205636 
0.522892 -0.495799 0.193089 
0.522894 -0.398688 0.486573 
0.522906 -0.461422 0.267710 
0.522908 -0.442736 0.364319 
0.522909 -0.490762 0.165574 
0.522921 -0.490774 0.229573 
0.522921 -0.442747 0.349128 
0.522924 -0.490776 0.209042 
0.522930 -0.424702 0.433329 
0.522957 -0.461467 0.321540 
0.522962 -0.420308 0.435719 
0.522968 -0.475943 0.246948 
0.522977 -0.490827 0.182164 
0.522981 -0.407279 0.499514 
0.522995 -0.394552 0.535276 
0.523005 -0.480888 0.227439 
0.523010 -0.424766 0.400862 
0.523025 -0.424778 0.396904 
0.523028 -0.480910 0.224036 
0.523061 -0.476027 0.243535 
0.523065 -0.438297 0.394009 
0.523075 -0.471172 0.252771 
0.523087 -0.490929 0.168931 
0.523104 -0.390454 0.523906 
0.523108 -0.496004 0.203319 
0.523125 -0.382202 0.377839 
0.523128 -0.420441 0.431706 
0.523135 -0.438355 0.362910 
0.523135 -0.416063 0.434086 
0.523135 -0.390477 0.528637 
0.523165 -0.433846 0.412433 
0.523168 -0.420474 0.391441 
0.523169 -0.476125 0.275100 
0.523171 -0.476127 0.260982 
0.523175 -0.407430 0.468650 
0.523177 -0.442964 0.341796 
0.523180 -0.374097 0.507046 
0.523198 -0.452248 0.315176 
0.523209 -0.491044 0.188925 
0.523210 -0.476163 0.236719 
0.523231 -0.491064 0.159094 
0.523239 -0.443015 0.376142 
0.523239 -0.398951 0.514085 
0.523258 -0.456995 0.320284 
0.523284 -0.443054 0.356940 
0.523291 -0.471367 0.245959 
0.523299 -0.390599 0.444624 
0.523308 -0.481167 0.248267 
0.523308 -0.399004 0.495903 
0.523311 -0.476255 0.229919 
0.523313 -0.476256 0.257551 
0.523317 -0.471391 0.277451 
0.523325 -0.471398 0.288161 
0.523327 -0.466574 0.269144 
0.523355 -0.476295 0.212987 
0.523363 -0.416243 0.455317 
0.523376 -0.443132 0.334486 
0.523397 -0.394856 0.480743 
0.523414 -0.416284 0.442662 
0.523419 -0.407619 0.455965 
0.523425 -0.466662 0.279780 
0.523440 -0.425116 0.417296 
0.523441 -0.443187 0.360860 
0.523450 -0.443194 0.392020 
0.523453 -0.452468 0.326334 
0.523461 -0.443204 0.396009 
0.523469 -0.491288 0.199103 
0.523481 -0.466712 0.248362 
0.523481 -0.438645 0.374699 
0.523484 -0.407670 0.473281 
0.523498 -0.496374 0.189943 
0.523503 -0.438663 0.355555 
0.523507 -0.471562 0.259943 
0.523510 -0.491326 0.152618 
0.523510 -0.429634 0.398934 
0.523519 -0.471573 0.274013 
0.523527 -0.452532 0.319028 
0.523548 -0.390785 0.470329 
0.523552 -0.491366 0.179032 
0.523557 -0.407727 0.547035 
0.523561 -0.476482 0.250699 
0.523565 -0.471614 0.284710 
0.523580 -0.466800 0.244970 
0.523593 -0.425239 0.409321 
0.523593 -0.496464 0.193348 
0.523605 -0.403480 0.493626 
0.523608 -0.374402 0.485071 
0.523619 -0.491429 0.165799 
0.523624 -0.491433 0.209322 
0.523640 -0.522570 0.140463 
0.523643 -0.425281 0.405343 
0.523647 -0.491455 0.226441 
0.523652 -0.476565 0.278917 
0.523674 -0.462100 0.314620 
0.523675 -0.416492 0.418115 
0.523675 -0.496543 0.196758 
0.523679 -0.407822 0.451941 
0.523693 -0.374463 0.503003 
0.523696 -0.407836 0.439350 
0.523707 -0.443412 0.368725 
0.523709 -0.471744 0.270577 
0.523732 -0.491535 0.155961 
0.523737 -0.452713 0.330211 
0.523738 -0.425358 0.429848 
0.523743 -0.481567 0.220933 
0.523761 -0.420950 0.407764 
0.523767 -0.416565 0.414139 
0.523771 -0.407893 0.477924 
0.523776 -0.462190 0.264665 
0.523789 -0.407908 0.460566 
0.523805 -0.491603 0.185792 
0.523835 -0.421010 0.399840 
0.523837 -0.467029 0.272925 
0.523842 -0.476738 0.240447 
0.523844 -0.391006 0.474938 
0.523864 -0.462267 0.296574 
0.523873 -0.391028 0.501627 
0.523876 -0.425470 0.425833 
0.523877 -0.452834 0.308316 
0.523889 -0.429945 0.419401 
0.523902 -0.395237 0.508148 
0.523914 -0.491706 0.189179 
0.523942 -0.439031 0.367305 
0.523949 -0.399492 0.519428 
0.523970 -0.457617 0.313388 
0.523984 -0.443646 0.380584 
0.524001 -0.382842 0.497975 
0.524004 -0.462391 0.318494 
0.524006 -0.439084 0.352114 
0.524011 -0.491797 0.192572 
0.524015 -0.391134 0.506312 
0.524035 -0.408099 0.482580 
0.524036 -0.481836 0.190760 
0.524038 -0.476916 0.209897 
0.524052 -0.476929 0.272011 
0.524067 -0.416803 0.443214 
0.524094 -0.496940 0.186794 
0.524095 -0.408146 0.552483 
0.524097 -0.491878 0.195968 
0.524100 -0.481895 0.245163 
0.524115 -0.399619 0.501191 
0.524116 -0.443759 0.361326 
0.524117 -0.491896 0.175898 
0.524121 -0.462494 0.271838 
0.524139 -0.477008 0.254461 
0.524142 -0.491920 0.162664 
0.524147 -0.408186 0.443909 
0.524161 -0.391243 0.492894 
0.524173 -0.430178 0.391509 
0.524176 -0.430180 0.399441 
0.524183 -0.421289 0.420234 
0.524183 -0.430186 0.395471 
0.524198 -0.467351 0.266082 
0.524204 -0.472190 0.260290 
0.524212 -0.472196 0.274375 
0.524213 -0.408238 0.542869 
0.524217 -0.383000 0.458838 
0.524231 -0.391294 0.515713 
0.524236 -0.425762 0.434411 
0.524242 -0.408260 0.500718 
0.524257 -0.453163 0.337993 
0.524277 -0.408288 0.487247 
0.524281 -0.421368 0.416244 
0.524285 -0.492053 0.206187 
0.524305 -0.457910 0.317250 
0.524311 -0.443923 0.338802 
0.524331 -0.408330 0.452503 
0.524332 -0.467470 0.276718 
0.524345 -0.472316 0.256867 
0.524347 -0.467484 0.287404 
0.524347 -0.391381 0.497559 
0.524361 -0.467496 0.262665 
0.524362 -0.492126 0.223306 
0.524363 -0.421434 0.412260 
0.524364 -0.425866 0.393960 
0.524366 -0.391395 0.539402 
0.524373 -0.467507 0.241907 
0.524381 -0.391407 0.529895 
0.524381 -0.391407 0.449735 
0.524387 -0.399826 0.492429 
0.524391 -0.492153 0.182656 
0.524393 -0.425889 0.430385 
0.524433 -0.417094 0.414665 
0.524437 -0.408413 0.461135 
0.524439 -0.421495 0.432788 
0.524467 -0.444056 0.353945 
0.524475 -0.421524 0.404313 
0.524485 -0.444070 0.331491 
0.524486 -0.444072 0.373147 
0.524488 -0.439489 0.363849 
0.524492 -0.391490 0.475526 
0.524494 -0.421540 0.388508 
0.524511 -0.492266 0.186043 
0.524543 -0.444120 0.342689 
0.524549 -0.383242 0.471999 
0.524554 -0.462877 0.296965 
0.524563 -0.404219 0.476756 
0.524575 -0.453438 0.316005 
0.524577 -0.444148 0.377104 
0.524578 -0.399972 0.483699 
0.524581 -0.472529 0.267499 
0.524613 -0.417237 0.431165 
0.524613 -0.477440 0.237354 
0.524619 -0.492367 0.189434 
0.524623 -0.435055 0.401471 
0.524637 -0.462950 0.261614 
0.524644 -0.482395 0.187652 
0.524656 -0.492402 0.139874 
0.524666 -0.400039 0.539073 
0.524671 -0.492416 0.172760 
0.524672 -0.477493 0.233943 
0.524673 -0.408596 0.483168 
0.524696 -0.408614 0.496617 
0.524704 -0.492447 0.149687 
0.524710 -0.477528 0.206804 
0.524716 -0.492458 0.192830 
0.524729 -0.439691 0.371715 
0.524750 -0.444295 0.389023 
0.524783 -0.408682 0.465752 
0.524785 -0.463080 0.258213 
0.524800 -0.453632 0.298041 
0.524801 -0.391721 0.493496 
0.524825 -0.492561 0.176136 
0.524854 -0.391760 0.462878 
0.524883 -0.482615 0.242054 
0.524896 -0.383496 0.467992 
0.524902 -0.497705 0.190453 
0.524913 -0.417476 0.452395 
0.524921 -0.417482 0.439739 
0.524930 -0.444447 0.365727 
0.524931 -0.391817 0.521053 
0.524936 -0.492665 0.203048 
0.524944 -0.421901 0.416770 
0.524961 -0.444474 0.350490 
0.524967 -0.492694 0.179516 
0.524974 -0.426361 0.406374 
0.524984 -0.391857 0.540038 
0.524995 -0.458512 0.310349 
0.525011 -0.426392 0.402396 
0.525018 -0.400307 0.511209 
0.525021 -0.426400 0.390509 
0.525051 -0.408891 0.479093 
0.525067 -0.396115 0.477877 
0.525092 -0.463351 0.290083 
0.525096 -0.472993 0.271294 
0.525096 -0.492815 0.136733 
0.525098 -0.492817 0.182902 
0.525107 -0.458610 0.292363 
0.525142 -0.482853 0.214716 
0.525143 -0.422061 0.404828 
0.525155 -0.444638 0.572306 
0.525159 -0.477936 0.193601 
0.525173 -0.473063 0.282004 
0.525176 -0.417686 0.411215 
0.525178 -0.440067 0.349128 
0.525180 -0.383704 0.522028 
0.525188 -0.392009 0.467474 
0.525190 -0.422098 0.396904 
0.525216 -0.492928 0.169619 
0.525226 -0.444698 0.343135 
0.525230 -0.409030 0.449040 
0.525241 -0.482945 0.184540 
0.525246 -0.444715 0.377585 
0.525277 -0.468314 0.284336 
0.525298 -0.431101 0.416440 
0.525308 -0.409091 0.553762 
0.525315 -0.444773 0.358326 
0.525320 -0.458796 0.306902 
0.525328 -0.409106 0.497216 
0.525343 -0.458816 0.314209 
0.525367 -0.458837 0.288935 
0.525367 -0.454123 0.334966 
0.525369 -0.409139 0.457664 
0.525372 -0.493074 0.140064 
0.525380 -0.493082 0.172993 
0.525397 -0.392165 0.512238 
0.525421 -0.478175 0.230846 
0.525434 -0.444874 0.335801 
0.525442 -0.444881 0.347035 
0.525443 -0.473306 0.264416 
0.525473 -0.375736 0.500189 
0.525477 -0.468492 0.252771 
0.525488 -0.463701 0.258559 
0.525488 -0.473347 0.243535 
0.525488 -0.431257 0.388546 
0.525492 -0.478240 0.220637 
0.525504 -0.493198 0.196494 
0.525509 -0.392248 0.463456 
0.525512 -0.431276 0.392509 
0.525521 -0.463729 0.293910 
0.525526 -0.493219 0.133589 
0.525533 -0.493225 0.176373 
0.525550 -0.409279 0.488430 
0.525555 -0.383978 0.490487 
0.525562 -0.404988 0.473281 
0.525575 -0.418003 0.440288 
0.525577 -0.493266 0.199905 
0.525582 -0.454308 0.305694 
0.525584 -0.445001 0.328489 
0.525607 -0.422434 0.417296 
0.525613 -0.454335 0.312977 
0.525614 -0.459053 0.285510 
0.525617 -0.454338 0.338870 
0.525625 -0.463821 0.255157 
0.525633 -0.459069 0.303457 
0.525637 -0.493323 0.143402 
0.525655 -0.483325 0.238940 
0.525667 -0.396568 0.505280 
0.525670 -0.409373 0.441006 
0.525675 -0.493358 0.179758 
0.525678 -0.426933 0.402907 
0.525679 -0.445082 0.339687 
0.525683 -0.459113 0.310756 
0.525691 -0.409389 0.479677 
0.525692 -0.422502 0.413305 
0.525693 -0.426946 0.391009 
0.525695 -0.473533 0.233317 
0.525700 -0.440505 0.360860 
0.525706 -0.463892 0.269144 
0.525724 -0.445120 0.370145 
0.525746 -0.400862 0.516548 
0.525748 -0.483411 0.164899 
0.525760 -0.422557 0.409321 
0.525761 -0.418151 0.436264 
0.525766 -0.409448 0.493116 
0.525772 -0.473602 0.226524 
0.525781 -0.392452 0.503454 
0.525800 -0.436031 0.378645 
0.525802 -0.431514 0.369330 
0.525811 -0.422598 0.385569 
0.525827 -0.483483 0.211602 
0.525828 -0.445207 0.374101 
0.525844 -0.418216 0.411737 
0.525845 -0.422625 0.401374 
0.525845 -0.427069 0.427434 
0.525849 -0.459258 0.282088 
0.525856 -0.483509 0.218412 
0.525863 -0.468835 0.239161 
0.525864 -0.409523 0.436998 
0.525880 -0.392526 0.490036 
0.525880 -0.464046 0.265728 
0.525890 -0.493560 0.146745 
0.525901 -0.459304 0.329320 
0.525906 -0.422674 0.429848 
0.525912 -0.468879 0.259943 
0.525926 -0.493594 0.169848 
0.525949 -0.392577 0.446875 
0.525950 -0.409591 0.484343 
0.525959 -0.498708 0.154073 
0.525966 -0.436169 0.398494 
0.525971 -0.473781 0.268208 
0.525992 -0.409623 0.549579 
0.525994 -0.459384 0.321959 
0.526010 -0.459398 0.307305 
0.526020 -0.409645 0.458231 
0.526052 -0.469004 0.256525 
0.526056 -0.392657 0.481334 
0.526063 -0.459444 0.289318 
0.526078 -0.396878 0.474419 
0.526088 -0.493746 0.140255 
0.526089 -0.493747 0.173227 
0.526091 -0.401125 0.489547 
0.526115 -0.405415 0.482580 
0.526124 -0.493780 0.193348 
0.526132 -0.493787 0.150094 
0.526146 -0.431797 0.404953 
0.526161 -0.478849 0.227743 
0.526171 -0.392743 0.546089 
0.526172 -0.427335 0.415395 
0.526177 -0.392748 0.442889 
0.526180 -0.436346 0.367305 
0.526221 -0.459583 0.296574 
0.526225 -0.431862 0.361971 
0.526242 -0.493890 0.176611 
0.526251 -0.401247 0.480816 
0.526273 -0.483893 0.161781 
0.526274 -0.454907 0.306097 
0.526311 -0.459662 0.285889 
0.526339 -0.427470 0.387554 
0.526352 -0.493994 0.143597 
0.526357 -0.423036 0.413827 
0.526361 -0.431974 0.365885 
0.526369 -0.427494 0.399441 
0.526370 -0.427496 0.360563 
0.526376 -0.427500 0.395471 
0.526379 -0.441073 0.361326 
0.526396 -0.445689 0.370618 
0.526426 -0.423092 0.409839 
0.526437 -0.392941 0.477290 
0.526446 -0.474209 0.230228 
0.526454 -0.464553 0.252095 
0.526461 -0.494096 0.166699 
0.526467 -0.392964 0.460016 
0.526493 -0.392983 0.468635 
0.526502 -0.474259 0.223434 
0.526503 -0.445779 0.355319 
0.526505 -0.397200 0.420177 
0.526509 -0.474266 0.216657 
0.526529 -0.494160 0.137106 
0.526533 -0.423178 0.397919 
0.526539 -0.484137 0.225539 
0.526547 -0.445817 0.332794 
0.526547 -0.459868 0.282463 
0.526582 -0.494210 0.156810 
0.526586 -0.455176 0.302660 
0.526586 -0.436683 0.387054 
0.526604 -0.494231 0.146945 
0.526624 -0.401532 0.476756 
0.526625 -0.459936 0.300409 
0.526637 -0.469525 0.236084 
0.526641 -0.455224 0.309943 
0.526654 -0.418861 0.400351 
0.526667 -0.418871 0.396396 
0.526672 -0.445923 0.325481 
0.526695 -0.410171 0.476185 
0.526698 -0.432250 0.413471 
0.526704 -0.423315 0.426366 
0.526708 -0.455282 0.270751 
0.526717 -0.460016 0.315031 
0.526722 -0.410192 0.467473 
0.526730 -0.464796 0.287404 
0.526730 -0.455301 0.335835 
0.526734 -0.494353 0.190198 
0.526762 -0.432303 0.409464 
