# .PCD v.7 - Point Cloud Data file format
VERSION .7
FIELDS x y z
SIZE 4 4 4
TYPE F F F
COUNT 1 1 1
WIDTH 1649
HEIGHT 1
POINTS 1649
DATA ascii
0.003159 0.514773 0.240047 
0.003159 0.514795 0.253873 
0.003162 0.515344 0.268276 
0.003164 0.515620 0.265566 
0.003164 0.515632 0.274171 
0.003165 0.515816 0.237798 
0.003166 0.515938 0.235131 
0.003168 0.516368 0.257456 
0.003169 0.516509 0.266024 
0.003171 0.516823 0.271919 
0.003175 0.517398 0.275110 
0.003176 0.517665 0.263768 
0.003178 0.517892 0.249806 
0.003178 0.517918 0.261057 
0.003178 0.518005 0.269661 
0.003181 0.518383 0.255642 
0.003183 0.518811 0.261507 
0.003184 0.518977 0.247543 
0.003185 0.519052 0.258794 
0.003186 0.519148 0.244850 
0.003187 0.519447 0.264676 
0.003188 0.519493 0.253378 
0.003192 0.520211 0.242582 
0.003199 0.521265 0.240310 
0.003200 0.521478 0.280205 
0.003201 0.521650 0.310354 
0.003203 0.522005 0.313658 
0.003206 0.522510 0.310866 
0.003207 0.522616 0.292684 
0.003207 0.522646 0.298722 
0.003208 0.522887 0.283909 
0.003209 0.522999 0.308075 
0.003210 0.523074 0.295946 
0.003212 0.523396 0.287150 
0.003212 0.523488 0.293172 
0.003212 0.523512 0.320814 
0.003214 0.523807 0.324147 
0.003214 0.523861 0.308583 
0.003215 0.523888 0.290401 
0.003215 0.523945 0.296438 
0.003216 0.524120 0.281625 
0.003217 0.524339 0.305790 
0.003219 0.524577 0.315203 
0.003219 0.524644 0.284863 
0.003220 0.524762 0.290885 
0.003220 0.524802 0.302999 
0.003221 0.524906 0.318526 
0.003222 0.525150 0.288112 
0.003223 0.525251 0.300210 
0.003224 0.525479 0.351120 
0.003226 0.525668 0.303499 
0.003226 0.525761 0.319045 
0.003228 0.526066 0.306798 
0.003233 0.526922 0.322904 
0.003234 0.527006 0.348824 
0.003236 0.527322 0.339190 
0.003238 0.527687 0.345972 
0.003239 0.527840 0.349375 
0.003242 0.528353 0.343122 
0.003243 0.528523 0.346521 
0.003245 0.528797 0.336886 
0.003250 0.529637 0.353898 
0.003251 0.529760 0.327831 
0.003252 0.530030 0.344211 
0.003254 0.530262 0.334576 
0.003256 0.530686 0.341354 
0.003257 0.530868 0.331729 
0.003265 0.532170 0.339035 
0.003286 0.535549 0.361238 
0.003287 0.535678 0.382102 
0.003292 0.536524 0.379184 
0.003302 0.538064 0.387357 
0.003302 0.538173 0.376839 
0.003307 0.538865 0.363475 
0.003311 0.539605 0.392052 
0.003312 0.539680 0.410388 
0.003312 0.539749 0.385005 
0.003312 0.539753 0.367511 
0.003312 0.539812 0.374487 
0.003314 0.540036 0.403270 
0.003317 0.540499 0.389109 
0.003321 0.541223 0.393228 
0.003322 0.541407 0.368636 
0.003322 0.541424 0.382647 
0.003322 0.541441 0.372128 
0.003322 0.541465 0.408030 
0.003324 0.541638 0.404467 
0.003324 0.541790 0.400910 
0.003329 0.542594 0.401504 
0.003330 0.542644 0.416392 
0.003330 0.542728 0.397951 
0.003332 0.543088 0.380280 
0.003335 0.543534 0.398542 
0.003338 0.543921 0.377337 
0.003338 0.543985 0.421205 
0.003339 0.544231 0.417609 
0.003346 0.545252 0.414625 
0.003347 0.545458 0.411039 
0.003347 0.545468 0.433892 
0.003348 0.545562 0.374960 
0.003357 0.547072 0.450978 
0.003357 0.547148 0.423653 
0.003359 0.547356 0.431507 
0.003359 0.547486 0.447322 
0.003361 0.547816 0.435759 
0.003363 0.548142 0.432127 
0.003364 0.548249 0.440023 
0.003365 0.548446 0.428499 
0.003369 0.549029 0.440649 
0.003370 0.549234 0.429115 
0.003371 0.549433 0.444929 
0.003375 0.550010 0.461520 
0.003385 0.551702 0.454795 
0.003386 0.551764 0.446817 
0.003386 0.551808 0.467147 
0.003387 0.552019 0.459116 
0.003388 0.552132 0.451118 
0.003389 0.552308 0.463449 
0.003391 0.552571 0.467793 
0.003392 0.552806 0.472148 
0.003406 0.555087 0.474096 
0.003409 0.555600 0.487255 
0.003418 0.556966 0.484170 
0.003419 0.557214 0.492988 
0.003425 0.558092 0.502516 
0.003426 0.558316 0.481083 
0.003433 0.559460 0.494976 
0.003433 0.559534 0.499410 
0.003443 0.561076 0.509653 
0.003452 0.562518 0.502074 
0.003465 0.564745 0.517501 
0.003466 0.564879 0.540762 
0.003470 0.565482 0.518177 
0.003472 0.565783 0.536915 
0.003475 0.566267 0.509876 
0.003477 0.566663 0.533071 
0.003478 0.566887 0.524033 
0.003479 0.566998 0.515032 
0.003487 0.568252 0.529911 
0.003496 0.569708 0.550168 
0.003501 0.570559 0.527427 
0.003506 0.571380 0.546986 
0.003509 0.571909 0.533322 
0.003517 0.573218 0.539238 
0.003521 0.573762 0.544487 
0.003527 0.574743 0.555031 
0.003560 0.580195 0.565209 
0.003569 0.581628 0.566604 
0.003571 0.582003 0.571941 
0.005475 0.486644 0.155785 
0.005482 0.487319 0.153660 
0.005488 0.487861 0.158525 
0.005490 0.487984 0.151532 
0.005493 0.488272 0.153961 
0.005500 0.488939 0.151829 
0.005508 0.489597 0.149694 
0.005528 0.491405 0.157309 
0.005531 0.491665 0.159761 
0.005534 0.491913 0.162218 
0.005551 0.493422 0.150863 
0.005560 0.494267 0.167791 
0.005579 0.495942 0.165950 
0.005590 0.496890 0.166267 
0.005597 0.497504 0.173747 
0.005598 0.497611 0.164097 
0.005599 0.497683 0.176250 
0.005602 0.497962 0.211385 
0.005605 0.498257 0.171574 
0.005607 0.498448 0.174076 
0.005612 0.498879 0.209210 
0.005616 0.499202 0.171900 
0.005620 0.499569 0.176917 
0.005622 0.499733 0.179433 
0.005622 0.499787 0.207031 
0.005622 0.499791 0.214740 
0.005624 0.499948 0.169720 
0.005625 0.500024 0.184480 
0.005632 0.500674 0.179771 
0.005633 0.500723 0.212557 
0.005634 0.500825 0.182296 
0.005645 0.501764 0.182638 
0.005657 0.502839 0.185518 
0.005659 0.503071 0.190608 
0.005660 0.503168 0.193160 
0.005664 0.503462 0.205984 
0.005664 0.503466 0.216319 
0.005669 0.503898 0.188411 
0.005670 0.504006 0.190962 
0.005672 0.504185 0.196078 
0.005674 0.504356 0.203786 
0.005681 0.505035 0.193877 
0.005684 0.505241 0.201583 
0.005687 0.505566 0.152167 
0.005693 0.506048 0.196803 
0.005694 0.506115 0.199376 
0.005695 0.506254 0.209710 
0.005698 0.506523 0.152455 
0.005705 0.507164 0.207499 
0.005706 0.507179 0.212691 
0.005715 0.508019 0.220907 
0.005716 0.508065 0.205284 
0.005731 0.509392 0.251219 
0.005734 0.509726 0.226959 
0.005743 0.510483 0.248994 
0.005745 0.510664 0.246330 
0.005745 0.510712 0.224732 
0.005753 0.511366 0.233057 
0.005754 0.511466 0.230413 
0.005756 0.511687 0.222501 
0.005757 0.511734 0.244099 
0.005769 0.512794 0.241864 
0.005773 0.513197 0.278660 
0.005777 0.513527 0.275945 
0.005781 0.513843 0.273232 
0.005781 0.513844 0.239624 
0.005782 0.513977 0.236961 
0.005785 0.514201 0.231645 
0.005785 0.514244 0.285068 
0.005787 0.514441 0.245391 
0.005789 0.514555 0.256563 
0.005792 0.514885 0.237380 
0.005794 0.515006 0.234716 
0.005794 0.515030 0.270987 
0.005796 0.515167 0.248502 
0.005796 0.515207 0.229399 
0.005799 0.515483 0.282821 
0.005799 0.515507 0.243144 
0.005801 0.515669 0.254316 
0.005801 0.515678 0.294752 
0.005803 0.515875 0.251625 
0.005807 0.516203 0.227149 
0.005807 0.516208 0.268737 
0.005809 0.516345 0.257456 
0.005811 0.516563 0.240892 
0.005816 0.516959 0.292499 
0.005816 0.517002 0.260607 
0.005820 0.517375 0.275110 
0.005820 0.517375 0.266482 
0.005827 0.517931 0.278311 
0.005828 0.518044 0.314376 
0.005830 0.518230 0.290241 
0.005830 0.518269 0.302264 
0.005833 0.518533 0.264222 
0.005834 0.518554 0.311598 
0.005834 0.518570 0.272850 
0.005835 0.518699 0.293484 
0.005840 0.519103 0.290729 
0.005840 0.519150 0.296737 
0.005844 0.519530 0.306045 
0.005845 0.519583 0.299999 
0.005847 0.519756 0.270584 
0.005849 0.519908 0.309332 
0.005854 0.520366 0.288461 
0.005858 0.520743 0.285707 
0.005860 0.520931 0.268314 
0.005862 0.521106 0.282955 
0.005870 0.521783 0.319769 
0.005873 0.522097 0.266038 
0.005880 0.522636 0.320291 
0.005886 0.523173 0.317489 
0.005886 0.523253 0.263757 
0.005901 0.524554 0.315203 
0.005906 0.524975 0.340943 
0.005912 0.525485 0.325200 
0.005913 0.525617 0.338108 
0.005916 0.525924 0.312911 
0.005920 0.526243 0.335274 
0.005932 0.527284 0.310613 
0.005936 0.527701 0.332975 
0.005941 0.528139 0.339731 
0.005947 0.528651 0.349927 
0.005953 0.529149 0.330669 
0.005953 0.529168 0.343667 
0.005955 0.529336 0.347069 
0.005961 0.529880 0.364198 
0.005974 0.531084 0.335109 
0.005979 0.531464 0.361883 
0.005986 0.532147 0.339035 
0.005989 0.532398 0.379779 
0.005990 0.532417 0.376298 
0.005995 0.532939 0.356120 
0.005997 0.533038 0.359560 
0.005999 0.533216 0.369927 
0.006003 0.533654 0.353239 
0.006008 0.534054 0.373971 
0.006016 0.534794 0.385020 
0.006023 0.535433 0.357787 
0.006035 0.536469 0.382682 
0.006044 0.537250 0.365822 
0.006045 0.537330 0.376265 
0.006050 0.537747 0.397936 
0.006054 0.538133 0.380338 
0.006062 0.538841 0.363475 
0.006063 0.538967 0.373917 
0.006069 0.539478 0.395585 
0.006070 0.539581 0.392052 
0.006071 0.539663 0.388525 
0.006075 0.540007 0.418144 
0.006077 0.540240 0.414566 
0.006082 0.540593 0.371562 
0.006089 0.541248 0.411599 
0.006091 0.541441 0.408030 
0.006102 0.542415 0.405065 
0.006105 0.542704 0.397951 
0.006109 0.543038 0.409233 
0.006111 0.543216 0.405663 
0.006122 0.544177 0.402694 
0.006131 0.545000 0.418218 
0.006140 0.545762 0.430269 
0.006143 0.546058 0.426652 
0.006151 0.546820 0.415836 
0.006152 0.546846 0.427268 
0.006155 0.547123 0.423653 
0.006158 0.547382 0.455280 
0.006159 0.547462 0.447322 
0.006163 0.547854 0.443670 
0.006176 0.549010 0.448587 
0.006180 0.549357 0.437004 
0.006180 0.549363 0.452887 
0.006181 0.549408 0.444929 
0.006185 0.549785 0.441275 
0.006187 0.549986 0.461520 
0.006189 0.550140 0.437627 
0.006193 0.550473 0.433984 
0.006194 0.550564 0.441901 
0.006208 0.551817 0.483959 
0.006216 0.552568 0.484618 
0.006223 0.553221 0.456067 
0.006231 0.553923 0.481546 
0.006236 0.554301 0.461035 
0.006236 0.554302 0.473446 
0.006238 0.554503 0.477819 
0.006250 0.555599 0.470377 
0.006255 0.556018 0.479125 
0.006259 0.556362 0.471023 
0.006261 0.556583 0.475395 
0.006265 0.556880 0.467305 
0.006278 0.558068 0.502516 
0.006278 0.558090 0.506963 
0.006294 0.559509 0.499410 
0.006302 0.560184 0.495639 
0.006303 0.560297 0.504523 
0.006303 0.560311 0.508980 
0.006310 0.560914 0.523092 
0.006310 0.560933 0.496301 
0.006311 0.561034 0.514123 
0.006327 0.562457 0.519960 
0.006328 0.562493 0.502074 
0.006348 0.564307 0.535539 
0.006350 0.564453 0.531016 
0.006358 0.565181 0.531701 
0.006360 0.565367 0.546000 
0.006373 0.566483 0.537604 
0.006376 0.566764 0.528547 
0.006387 0.567743 0.543528 
0.006417 0.570402 0.550863 
0.006422 0.570858 0.556138 
0.006430 0.571574 0.556836 
0.006436 0.572077 0.547677 
0.006483 0.576271 0.566333 
0.006515 0.579124 0.569137 
0.007978 0.487561 0.156090 
0.008014 0.489729 0.159143 
0.008018 0.489979 0.161592 
0.008036 0.491099 0.154863 
0.008047 0.491770 0.152718 
0.008058 0.492431 0.150571 
0.008137 0.497276 0.171248 
0.008150 0.498019 0.169077 
0.008162 0.498752 0.166902 
0.008170 0.499296 0.189191 
0.008171 0.499356 0.174406 
0.008178 0.499766 0.209597 
0.008179 0.499785 0.150438 
0.008179 0.499850 0.181954 
0.008184 0.500116 0.187010 
0.008192 0.500613 0.202287 
0.008192 0.500639 0.179771 
0.008197 0.500927 0.184826 
0.008205 0.501418 0.177585 
0.008206 0.501490 0.200100 
0.008218 0.502199 0.192801 
0.008219 0.502285 0.195354 
0.008237 0.503354 0.221510 
0.008238 0.503447 0.208562 
0.008251 0.504210 0.224518 
0.008253 0.504316 0.219311 
0.008253 0.504349 0.216714 
0.008253 0.504352 0.206363 
0.008266 0.505149 0.199010 
0.008268 0.505290 0.214511 
0.008338 0.509510 0.232228 
0.008354 0.510519 0.230002 
0.008368 0.511346 0.249433 
0.008369 0.511455 0.269125 
0.008371 0.511528 0.246765 
0.008380 0.512124 0.236124 
0.008388 0.512600 0.244530 
0.008389 0.512624 0.266890 
0.008397 0.513151 0.261498 
0.008401 0.513394 0.258806 
0.008405 0.513662 0.242291 
0.008408 0.513807 0.273232 
0.008408 0.513808 0.239624 
0.008419 0.514519 0.256563 
0.008438 0.515633 0.254316 
0.008466 0.517339 0.266482 
0.008489 0.518775 0.278785 
0.008508 0.519938 0.291218 
0.008512 0.520190 0.282478 
0.008523 0.520850 0.297729 
0.008529 0.521204 0.288946 
0.008535 0.521583 0.286188 
0.008544 0.522144 0.295454 
0.008556 0.522833 0.333125 
0.008569 0.523659 0.314688 
0.008571 0.523801 0.308583 
0.008575 0.524024 0.327489 
0.008579 0.524281 0.330840 
0.008580 0.524304 0.321336 
0.008587 0.524739 0.337567 
0.008589 0.524846 0.318526 
0.008590 0.524938 0.340943 
0.008592 0.525027 0.312400 
0.008593 0.525142 0.306294 
0.008598 0.525448 0.325200 
0.008615 0.526473 0.303999 
0.008625 0.527082 0.352231 
0.008634 0.527626 0.345972 
0.008637 0.527779 0.349375 
0.008641 0.528027 0.356205 
0.008645 0.528297 0.373412 
0.008658 0.529070 0.367077 
0.008670 0.529843 0.364198 
0.008672 0.529921 0.371103 
0.008696 0.531427 0.361883 
0.008757 0.535166 0.399680 
0.008773 0.536101 0.396746 
0.008801 0.537827 0.394403 
0.008802 0.537871 0.424078 
0.008817 0.538814 0.387941 
0.008818 0.538873 0.384425 
0.008819 0.538928 0.421112 
0.008823 0.539179 0.417531 
0.008829 0.539543 0.392052 
0.008846 0.540605 0.407428 
0.008853 0.540995 0.415174 
0.008856 0.541168 0.434390 
0.008882 0.542801 0.412810 
0.008887 0.543058 0.432024 
0.008979 0.548692 0.464562 
0.008989 0.549324 0.452887 
0.008996 0.549746 0.449220 
0.009007 0.550418 0.457837 
0.009012 0.550713 0.462163 
0.009028 0.551701 0.446817 
0.009045 0.552742 0.472148 
0.009082 0.554993 0.495415 
0.009095 0.555799 0.500509 
0.009117 0.557149 0.492988 
0.009123 0.557494 0.480430 
0.009140 0.558543 0.489893 
0.009144 0.558791 0.507636 
0.009150 0.559166 0.486139 
0.009156 0.559520 0.512772 
0.009179 0.560948 0.518602 
0.009281 0.567168 0.538292 
0.009296 0.568055 0.534442 
0.009322 0.569649 0.531275 
0.009325 0.569870 0.545602 
0.009404 0.574677 0.555031 
0.009470 0.578696 0.563813 
0.009686 0.591920 0.581753 
0.010377 0.483129 0.150050 
0.010391 0.483779 0.147940 
0.010398 0.484084 0.150346 
0.010412 0.484735 0.148232 
0.010424 0.485330 0.153059 
0.010427 0.485430 0.162460 
0.010439 0.485993 0.150939 
0.010442 0.486134 0.160339 
0.010451 0.486562 0.155785 
0.010452 0.486610 0.165219 
0.010453 0.486647 0.148817 
0.010457 0.486829 0.158216 
0.010459 0.486948 0.151236 
0.010465 0.487237 0.153660 
0.010471 0.487514 0.156090 
0.010473 0.487603 0.149109 
0.010477 0.487780 0.158525 
0.010486 0.488191 0.153961 
0.010487 0.488249 0.146980 
0.010492 0.488467 0.156395 
0.010506 0.489144 0.154262 
0.010518 0.489681 0.159143 
0.010574 0.492286 0.179218 
0.010590 0.493036 0.148421 
0.010590 0.493063 0.177068 
0.010619 0.494392 0.170272 
0.010640 0.495386 0.160997 
0.010644 0.495533 0.173087 
0.010648 0.495715 0.175582 
0.010651 0.495859 0.165950 
0.010652 0.495908 0.149285 
0.010658 0.496189 0.183095 
0.010664 0.496476 0.173417 
0.010666 0.496578 0.163784 
0.010671 0.496799 0.198248 
0.010671 0.496807 0.166267 
0.010675 0.496983 0.180928 
0.010680 0.497228 0.171248 
0.010686 0.497484 0.191010 
0.010686 0.497528 0.164097 
0.010688 0.497600 0.176250 
0.010689 0.497659 0.196078 
0.010692 0.497767 0.178758 
0.010693 0.497826 0.203712 
0.010698 0.498065 0.183788 
0.010700 0.498173 0.171574 
0.010703 0.498312 0.188837 
0.010704 0.498364 0.174076 
0.010708 0.498509 0.193904 
0.010712 0.498703 0.166902 
0.010712 0.498710 0.201538 
0.010713 0.498752 0.204091 
0.010716 0.498917 0.169398 
0.010721 0.499119 0.171900 
0.010721 0.499131 0.186660 
0.010723 0.499247 0.189191 
0.010732 0.499645 0.219899 
0.010734 0.499719 0.212167 
0.010735 0.499801 0.181954 
0.010737 0.499864 0.169720 
0.010738 0.499941 0.184480 
0.010741 0.500068 0.187010 
0.010752 0.500564 0.202287 
0.010752 0.500599 0.217717 
0.010753 0.500626 0.215135 
0.010758 0.500879 0.184826 
0.010765 0.501196 0.175065 
0.010769 0.501370 0.177585 
0.010771 0.501442 0.200100 
0.010772 0.501516 0.218115 
0.010772 0.501531 0.180109 
0.010773 0.501544 0.215530 
0.010773 0.501551 0.207797 
0.010773 0.501560 0.212948 
0.010773 0.501562 0.210370 
0.010776 0.501680 0.182638 
0.010781 0.501941 0.187711 
0.010789 0.502310 0.197910 
0.010792 0.502433 0.218514 
0.010792 0.502453 0.205606 
0.010792 0.502463 0.215924 
0.010793 0.502472 0.180447 
0.010793 0.502475 0.208179 
0.010793 0.502484 0.210757 
0.010801 0.502877 0.188061 
0.010808 0.503168 0.195716 
0.010812 0.503398 0.208562 
0.010824 0.503922 0.190962 
0.010826 0.504017 0.193518 
0.010830 0.504220 0.221913 
0.010831 0.504272 0.203786 
0.010850 0.505156 0.201583 
0.010864 0.505792 0.191671 
0.010868 0.505988 0.225332 
0.010869 0.506031 0.199376 
0.010888 0.506896 0.197166 
0.010888 0.506901 0.225738 
0.010889 0.506966 0.223121 
0.010896 0.507282 0.239305 
0.010901 0.507535 0.234030 
0.010904 0.507641 0.231398 
0.010906 0.507734 0.228770 
0.010906 0.507751 0.194952 
0.010912 0.508039 0.242377 
0.010918 0.508322 0.237088 
0.010920 0.508401 0.261903 
0.010921 0.508443 0.234449 
0.010923 0.508551 0.231813 
0.010927 0.508728 0.226552 
0.010928 0.508751 0.267728 
0.010938 0.509228 0.237511 
0.010939 0.509289 0.262361 
0.010940 0.509351 0.234868 
0.010943 0.509461 0.232228 
0.010944 0.509538 0.259682 
0.010947 0.509678 0.245896 
0.010948 0.509711 0.224329 
0.010951 0.509843 0.243238 
0.010953 0.509914 0.265505 
0.010963 0.510429 0.260136 
0.010967 0.510578 0.246330 
0.010969 0.510666 0.257456 
0.010969 0.510685 0.222103 
0.010974 0.510899 0.241011 
0.010977 0.511067 0.263277 
0.010982 0.511296 0.249433 
0.010988 0.511559 0.257906 
0.010990 0.511648 0.244099 
0.010990 0.511649 0.219872 
0.010991 0.511683 0.217246 
0.010993 0.511785 0.255225 
0.010997 0.511996 0.252546 
0.011001 0.512190 0.233472 
0.011005 0.512379 0.247199 
0.011009 0.512560 0.275472 
0.011016 0.512852 0.239202 
0.011016 0.512875 0.272763 
0.011016 0.512893 0.252989 
0.011018 0.512983 0.236542 
0.011021 0.513093 0.250310 
0.011021 0.513102 0.261498 
0.011021 0.513111 0.278660 
0.011026 0.513345 0.258806 
0.011029 0.513461 0.267352 
0.011035 0.513757 0.273232 
0.011040 0.513992 0.261952 
0.011044 0.514158 0.285068 
0.011044 0.514180 0.248068 
0.011047 0.514322 0.276418 
0.011048 0.514348 0.267814 
0.011055 0.514687 0.253873 
0.011059 0.514890 0.251186 
0.011060 0.514944 0.270987 
0.011065 0.515130 0.259706 
0.011067 0.515235 0.268276 
0.011067 0.515258 0.245821 
0.011069 0.515364 0.257010 
0.011070 0.515397 0.282821 
0.011078 0.515747 0.280092 
0.011079 0.515789 0.251625 
0.011089 0.516258 0.257456 
0.011089 0.516273 0.283302 
0.011090 0.516325 0.243570 
0.011092 0.516400 0.266024 
0.011099 0.516714 0.271919 
0.011100 0.516781 0.286522 
0.011102 0.516859 0.304522 
0.011102 0.516872 0.292499 
0.011108 0.517150 0.283783 
0.011112 0.517328 0.295745 
0.011118 0.517610 0.311082 
0.011121 0.517742 0.292992 
0.011121 0.517764 0.298999 
0.011123 0.517845 0.278311 
0.011129 0.518143 0.290241 
0.011130 0.518182 0.302264 
0.011134 0.518383 0.281523 
0.011138 0.518530 0.287492 
0.011139 0.518581 0.305538 
0.011139 0.518613 0.293484 
0.011140 0.518630 0.299499 
0.011147 0.518962 0.308821 
0.011149 0.519054 0.276049 
0.011156 0.519405 0.287977 
0.011156 0.519410 0.330976 
0.011167 0.519888 0.291218 
0.011172 0.520140 0.282478 
0.011175 0.520253 0.273781 
0.011184 0.520680 0.309843 
0.011187 0.520849 0.328706 
0.011188 0.520887 0.341586 
0.011200 0.521430 0.325900 
0.011204 0.521637 0.304279 
0.011205 0.521667 0.298226 
0.011206 0.521694 0.329240 
0.011210 0.521895 0.313658 
0.011212 0.521996 0.323095 
0.011214 0.522093 0.301499 
0.011216 0.522165 0.335944 
0.011220 0.522372 0.339309 
0.011229 0.522783 0.333125 
0.011231 0.522889 0.308075 
0.011233 0.522963 0.295946 
0.011236 0.523125 0.326960 
0.011241 0.523364 0.305287 
0.011242 0.523377 0.293172 
0.011242 0.523401 0.320814 
0.011242 0.523403 0.299218 
0.011249 0.523697 0.324147 
0.011250 0.523750 0.308583 
0.011254 0.523940 0.318008 
0.011254 0.523973 0.327489 
0.011258 0.524117 0.311888 
0.011260 0.524231 0.330840 
0.011261 0.524253 0.321336 
0.011270 0.524688 0.337567 
0.011279 0.525106 0.321858 
0.011281 0.525227 0.347720 
0.011283 0.525312 0.334737 
0.011283 0.525323 0.315718 
0.011291 0.525650 0.319045 
0.011291 0.525669 0.328549 
0.011292 0.525726 0.341488 
0.011296 0.525903 0.344876 
0.011297 0.525955 0.306798 
0.011305 0.526318 0.355087 
0.011307 0.526422 0.303999 
0.011310 0.526564 0.342033 
0.011322 0.527097 0.326252 
0.011328 0.527403 0.342577 
0.011331 0.527554 0.313933 
0.011338 0.527862 0.352786 
0.011342 0.528070 0.359632 
0.011352 0.528515 0.323949 
0.011360 0.528892 0.340272 
0.011371 0.529396 0.350479 
0.011382 0.529923 0.321639 
0.011386 0.530084 0.347617 
0.011387 0.530150 0.334576 
0.011392 0.530356 0.354453 
0.011392 0.530371 0.337961 
0.011407 0.531063 0.351583 
0.011412 0.531291 0.358442 
0.011412 0.531322 0.319323 
0.011422 0.531756 0.348714 
0.011433 0.532263 0.365898 
0.011443 0.532731 0.352687 
0.011445 0.532850 0.356120 
0.011447 0.532949 0.359560 
0.011449 0.533020 0.387350 
0.011452 0.533146 0.373397 
0.011464 0.533744 0.391446 
0.011467 0.533854 0.363571 
0.011468 0.533893 0.384435 
0.011468 0.533911 0.367030 
0.011484 0.534637 0.388525 
0.011485 0.534705 0.385020 
0.011486 0.534751 0.381521 
0.011486 0.534769 0.371067 
0.011487 0.534777 0.378029 
0.011501 0.535435 0.361238 
0.011502 0.535507 0.364697 
0.011503 0.535559 0.368163 
0.011503 0.535565 0.382102 
0.011504 0.535594 0.378607 
0.011508 0.535762 0.403817 
0.011511 0.535916 0.400278 
0.011514 0.536049 0.396746 
0.011518 0.536255 0.389701 
0.011520 0.536334 0.365260 
0.011521 0.536383 0.368730 
0.011522 0.536412 0.372207 
0.011522 0.536421 0.375692 
0.011524 0.536512 0.419265 
0.011525 0.536560 0.404419 
0.011528 0.536717 0.400877 
0.011529 0.536755 0.415695 
0.011531 0.536853 0.397341 
0.011534 0.536969 0.393811 
0.011534 0.537006 0.358898 
0.011537 0.537139 0.386773 
0.011538 0.537193 0.383263 
0.011539 0.537227 0.379761 
0.011539 0.537240 0.376265 
0.011542 0.537358 0.405021 
0.011545 0.537518 0.401475 
0.011546 0.537529 0.427667 
0.011548 0.537657 0.397936 
0.011551 0.537775 0.394403 
0.011552 0.537819 0.424078 
0.011553 0.537873 0.390876 
0.011555 0.537974 0.409178 
0.011557 0.538055 0.373347 
0.011563 0.538336 0.416919 
0.011568 0.538563 0.413348 
0.011572 0.538770 0.409783 
0.011575 0.538877 0.373917 
0.011579 0.539093 0.428912 
0.011580 0.539127 0.417531 
0.011586 0.539389 0.425317 
0.011589 0.539556 0.433138 
0.011589 0.539566 0.410388 
0.011591 0.539664 0.421727 
0.011593 0.539754 0.406826 
0.011602 0.540150 0.414566 
0.011602 0.540174 0.425936 
0.011603 0.540194 0.396177 
0.011614 0.540708 0.418756 
0.011619 0.540943 0.415174 
0.011625 0.541239 0.422959 
0.011631 0.541523 0.404467 
0.011635 0.541675 0.400910 
0.011653 0.542529 0.416392 
0.011656 0.542675 0.435642 
0.011663 0.543006 0.432024 
0.011704 0.544885 0.429650 
0.011727 0.545966 0.426652 
0.011732 0.546208 0.442411 
0.011740 0.546596 0.446689 
0.011751 0.547112 0.463270 
0.011755 0.547290 0.455280 
0.011757 0.547354 0.439397 
0.011762 0.547596 0.459592 
0.011764 0.547700 0.435759 
0.011765 0.547762 0.443670 
0.011772 0.548059 0.455919 
0.011778 0.548362 0.460235 
0.011781 0.548499 0.452251 
0.011784 0.548639 0.464562 
0.011788 0.548827 0.456558 
0.011795 0.549128 0.460878 
0.011798 0.549271 0.452887 
0.011799 0.549316 0.444929 
0.011807 0.549693 0.449220 
0.011814 0.550042 0.453523 
0.011817 0.550165 0.465854 
0.011822 0.550408 0.470199 
0.011824 0.550467 0.449852 
0.011832 0.550870 0.446187 
0.011839 0.551168 0.470849 
0.011851 0.551724 0.483959 
0.011863 0.552321 0.480234 
0.011889 0.553516 0.498501 
0.011890 0.553557 0.502929 
0.011890 0.553569 0.507367 
0.011896 0.553830 0.481546 
0.011902 0.554101 0.490338 
0.011908 0.554411 0.477819 
0.011915 0.554731 0.486596 
0.011915 0.554743 0.469731 
0.011921 0.555021 0.513172 
0.011924 0.555168 0.478472 
0.011928 0.555339 0.482858 
0.011931 0.555482 0.487255 
0.011936 0.555686 0.496081 
0.011936 0.555730 0.474745 
0.011938 0.555780 0.509394 
0.011950 0.556347 0.492326 
0.011954 0.556517 0.510069 
0.011967 0.557164 0.519682 
0.011969 0.557231 0.501847 
0.011982 0.557844 0.493651 
0.011985 0.557997 0.506963 
0.011996 0.558489 0.489893 
0.011997 0.558533 0.525534 
0.012000 0.558669 0.498744 
0.012000 0.558692 0.516566 
0.012001 0.558737 0.507636 
0.012017 0.559460 0.503854 
0.012022 0.559712 0.482388 
0.012028 0.559989 0.526905 
0.012033 0.560203 0.504523 
0.012037 0.560426 0.536613 
0.012041 0.560586 0.532097 
0.012042 0.560621 0.487451 
0.012046 0.560840 0.496301 
0.012056 0.561311 0.532785 
0.012062 0.561551 0.523774 
0.012064 0.561653 0.501408 
0.012072 0.562037 0.533474 
0.012077 0.562282 0.524455 
0.012079 0.562362 0.519960 
0.012084 0.562593 0.538687 
0.012093 0.563014 0.525138 
0.012097 0.563177 0.511670 
0.012106 0.563630 0.530330 
0.012111 0.563831 0.521318 
0.012112 0.563888 0.516825 
0.012119 0.564212 0.535539 
0.012142 0.565272 0.546000 
0.012162 0.566204 0.542145 
0.012169 0.566543 0.533071 
0.012213 0.568614 0.554044 
0.012219 0.568868 0.549473 
0.012265 0.571025 0.551557 
0.012275 0.571478 0.556836 
0.012296 0.572464 0.552947 
0.012317 0.573426 0.549060 
0.012376 0.576175 0.566333 
0.012460 0.580089 0.575179 
0.012483 0.581166 0.571240 
0.012490 0.581504 0.566604 
0.012521 0.582937 0.568000 
0.012559 0.584732 0.574744 
0.012673 0.590029 0.585035 
0.012713 0.591863 0.581753 
0.012982 0.488131 0.153961 
0.013000 0.488798 0.151829 
0.013017 0.489455 0.149694 
0.013091 0.492225 0.179218 
0.013112 0.493002 0.177068 
0.013116 0.493167 0.157919 
0.013129 0.493669 0.162845 
0.013132 0.493770 0.174914 
0.013141 0.494123 0.167791 
0.013148 0.494375 0.160688 
0.013152 0.494528 0.172757 
0.013161 0.494850 0.165632 
0.013172 0.495277 0.170597 
0.013187 0.495847 0.149285 
0.013248 0.498134 0.186310 
0.013251 0.498251 0.188837 
0.013270 0.498941 0.184134 
0.013279 0.499289 0.191726 
0.013286 0.499576 0.201912 
0.013288 0.499621 0.217318 
0.013288 0.499642 0.207031 
0.013310 0.500452 0.199730 
0.013312 0.500541 0.204848 
0.013313 0.500564 0.215135 
0.013331 0.501243 0.194991 
0.013333 0.501318 0.197544 
0.013338 0.501498 0.212948 
0.013360 0.502329 0.221108 
0.013362 0.502422 0.210757 
0.013448 0.505657 0.233193 
0.013451 0.505760 0.230569 
0.013469 0.506447 0.236243 
0.013477 0.506741 0.247241 
0.013477 0.506761 0.228359 
0.013504 0.507752 0.226145 
0.013506 0.507814 0.245027 
0.013510 0.507976 0.242377 
0.013538 0.509028 0.240158 
0.013538 0.509038 0.253886 
0.013544 0.509244 0.251219 
0.013583 0.510738 0.265967 
0.013597 0.511257 0.260590 
0.013614 0.511893 0.263735 
0.013627 0.512389 0.258356 
0.013662 0.513694 0.273232 
0.013670 0.513996 0.270522 
0.013675 0.514199 0.291022 
0.013686 0.514591 0.288286 
0.013700 0.515139 0.276892 
0.013719 0.515843 0.286037 
0.013734 0.516396 0.295248 
0.013752 0.517086 0.283783 
0.013785 0.518319 0.281523 
0.013800 0.518898 0.308821 
0.013828 0.519927 0.318724 
0.013836 0.520240 0.306553 
0.013855 0.520974 0.313143 
0.013864 0.521312 0.316451 
0.013871 0.521572 0.304279 
0.013881 0.521932 0.323095 
0.013884 0.522029 0.301499 
0.013913 0.523146 0.339854 
0.013947 0.524405 0.334200 
0.013953 0.524623 0.337567 
0.013963 0.525003 0.344328 
0.013971 0.525304 0.351120 
0.013985 0.525857 0.331908 
0.013989 0.525996 0.348272 
0.014001 0.526452 0.329079 
0.014090 0.529775 0.367647 
0.014128 0.531226 0.358442 
0.014132 0.531374 0.365331 
0.014134 0.531446 0.375721 
0.014152 0.532136 0.362446 
0.014156 0.532261 0.372824 
0.014303 0.537807 0.390876 
0.014305 0.537884 0.387357 
0.014307 0.537941 0.383844 
0.014322 0.538515 0.394994 
0.014327 0.538704 0.409783 
0.014374 0.540486 0.407428 
0.014400 0.541457 0.404467 
0.014401 0.541490 0.446526 
0.014406 0.541670 0.415783 
0.014426 0.542412 0.401504 
0.014440 0.542939 0.432024 
0.014453 0.543432 0.444158 
0.014463 0.543803 0.421205 
0.014463 0.543811 0.440523 
0.014469 0.544033 0.429031 
0.014476 0.544324 0.425421 
0.014514 0.545727 0.438145 
0.014582 0.548284 0.472597 
0.014616 0.549580 0.469550 
0.014623 0.549826 0.461520 
0.014635 0.550297 0.457837 
0.014650 0.550860 0.466500 
0.014719 0.553448 0.498501 
0.014727 0.553762 0.481546 
0.014777 0.555617 0.496081 
0.014802 0.556574 0.537664 
0.014834 0.557776 0.493651 
0.014849 0.558342 0.530032 
0.014851 0.558420 0.489893 
0.014858 0.558668 0.507636 
0.014864 0.558913 0.535230 
0.014872 0.559192 0.526219 
0.014876 0.559357 0.517245 
0.014916 0.560871 0.514123 
0.014933 0.561482 0.523774 
0.015083 0.567112 0.552649 
0.015196 0.479179 0.148863 
0.015217 0.479824 0.146770 
0.015226 0.480134 0.149160 
0.015247 0.480780 0.147063 
0.015312 0.575758 0.570955 
0.015322 0.576104 0.566333 
0.015374 0.484795 0.157598 
0.015387 0.485198 0.153059 
0.015396 0.485478 0.155480 
0.015398 0.485531 0.164898 
0.015420 0.486246 0.162777 
0.015426 0.486430 0.155785 
0.015443 0.486951 0.160653 
0.015447 0.487105 0.153660 
0.015449 0.487159 0.146691 
0.015469 0.487770 0.151532 
0.015489 0.488426 0.149401 
0.015517 0.489286 0.156700 
0.015525 0.489533 0.168644 
0.015548 0.490264 0.166505 
0.015571 0.490985 0.164363 
0.015584 0.491423 0.169295 
0.015593 0.491697 0.162218 
0.015608 0.492156 0.167148 
0.015615 0.492400 0.160070 
0.015631 0.492902 0.148421 
0.015644 0.493313 0.169946 
0.015668 0.494049 0.167791 
0.015676 0.494301 0.160688 
0.015684 0.494549 0.189935 
0.015689 0.494734 0.194978 
0.015691 0.494776 0.165632 
0.015706 0.495251 0.185259 
0.015710 0.495373 0.187774 
0.015710 0.495398 0.173087 
0.015714 0.495494 0.163471 
0.015716 0.495579 0.192817 
0.015716 0.495580 0.175582 
0.015721 0.495724 0.165950 
0.015731 0.496054 0.183095 
0.015736 0.496202 0.161306 
0.015740 0.496341 0.173417 
0.015743 0.496415 0.190651 
0.015744 0.496443 0.163784 
0.015752 0.496691 0.178420 
0.015753 0.496730 0.149573 
0.015757 0.496848 0.180928 
0.015761 0.496992 0.183442 
0.015769 0.497242 0.188482 
0.015776 0.497465 0.176250 
0.015781 0.497632 0.178758 
0.015782 0.497648 0.201163 
0.015783 0.497687 0.149862 
0.015784 0.497714 0.216520 
0.015784 0.497721 0.206266 
0.015786 0.497787 0.181270 
0.015795 0.498059 0.186310 
0.015805 0.498374 0.193904 
0.015806 0.498407 0.176583 
0.015810 0.498520 0.198989 
0.015811 0.498573 0.179095 
0.015812 0.498594 0.219497 
0.015813 0.498616 0.204091 
0.015814 0.498653 0.214345 
0.015825 0.498996 0.186660 
0.015830 0.499172 0.174406 
0.015837 0.499383 0.196811 
0.015839 0.499449 0.199359 
0.015842 0.499547 0.217318 
0.015843 0.499583 0.212167 
0.015850 0.499805 0.184480 
0.015854 0.499932 0.187010 
0.015858 0.500046 0.189545 
0.015861 0.500148 0.192085 
0.015864 0.500237 0.194629 
0.015868 0.500377 0.199730 
0.015872 0.500490 0.215135 
0.015888 0.500981 0.189900 
0.015891 0.501081 0.192443 
0.015897 0.501285 0.223298 
0.015899 0.501339 0.220705 
0.015902 0.501423 0.212948 
0.015902 0.501425 0.210370 
0.015924 0.502129 0.226306 
0.015930 0.502316 0.205606 
0.015955 0.503111 0.224111 
0.015957 0.503162 0.200842 
0.015958 0.503208 0.203411 
0.015959 0.503241 0.205984 
0.015960 0.503262 0.208562 
0.015979 0.503865 0.229740 
0.015984 0.504033 0.198643 
0.015986 0.504083 0.221913 
0.015987 0.504130 0.219311 
0.015988 0.504135 0.203786 
0.015989 0.504166 0.206363 
0.015989 0.504185 0.208945 
0.016001 0.504560 0.235398 
0.016005 0.504674 0.232774 
0.016011 0.504863 0.227538 
0.016016 0.505046 0.219710 
0.016017 0.505062 0.204160 
0.016018 0.505081 0.217109 
0.016026 0.505337 0.238452 
0.016045 0.505938 0.244158 
0.016047 0.506000 0.217503 
0.016047 0.506023 0.214902 
0.016048 0.506034 0.212304 
0.016062 0.506489 0.233612 
0.016066 0.506594 0.230984 
0.016068 0.506685 0.228359 
0.016073 0.506828 0.223121 
0.016077 0.506943 0.215292 
0.016077 0.506955 0.210093 
0.016077 0.506956 0.212691 
0.016078 0.506998 0.241947 
0.016087 0.507278 0.236666 
0.016091 0.507397 0.234030 
0.016094 0.507503 0.231398 
0.016097 0.507597 0.228770 
0.016100 0.507676 0.226145 
0.016110 0.508002 0.264582 
0.016112 0.508049 0.239731 
0.016116 0.508183 0.237088 
0.016134 0.508742 0.256556 
0.016135 0.508773 0.282159 
0.016139 0.508899 0.273578 
0.016140 0.508953 0.240158 
0.016141 0.508962 0.253886 
0.016147 0.509151 0.262361 
0.016154 0.509400 0.259682 
0.016162 0.509635 0.257006 
0.016164 0.509705 0.243238 
0.016174 0.509999 0.279935 
0.016176 0.510064 0.251662 
0.016182 0.510259 0.248994 
0.016183 0.510290 0.260136 
0.016188 0.510440 0.246330 
0.016193 0.510607 0.243669 
0.016197 0.510751 0.254779 
0.016198 0.510761 0.241011 
0.016204 0.510970 0.271824 
0.016210 0.511157 0.249433 
0.016212 0.511215 0.277706 
0.016214 0.511266 0.269125 
0.016219 0.511420 0.257906 
0.016223 0.511548 0.266429 
0.016226 0.511645 0.255225 
0.016231 0.511807 0.238779 
0.016233 0.511857 0.252546 
0.016245 0.512240 0.247199 
0.016250 0.512411 0.244530 
0.016259 0.512705 0.264193 
0.016261 0.512754 0.252989 
0.016267 0.512954 0.250310 
0.016288 0.513618 0.273232 
0.016289 0.513650 0.253431 
0.016296 0.513853 0.261952 
0.016302 0.514041 0.248068 
0.016302 0.514042 0.309022 
0.016303 0.514098 0.259256 
0.016307 0.514208 0.267814 
0.016317 0.514514 0.288286 
0.016324 0.514750 0.251186 
0.016326 0.514804 0.270987 
0.016333 0.515027 0.297499 
0.016339 0.515223 0.257010 
0.016344 0.515385 0.306775 
0.016351 0.515607 0.280092 
0.016354 0.515689 0.271453 
0.016359 0.515857 0.304015 
0.016363 0.515981 0.268737 
0.016374 0.516319 0.295248 
0.016379 0.516485 0.280569 
0.016384 0.516641 0.286522 
0.016387 0.516718 0.304522 
0.016387 0.516732 0.292499 
0.016390 0.516823 0.277838 
0.016400 0.517148 0.266482 
0.016401 0.517178 0.301760 
0.016412 0.517515 0.287007 
0.016414 0.517579 0.305030 
0.016415 0.517623 0.298999 
0.016418 0.517704 0.278311 
0.016424 0.517885 0.284264 
0.016427 0.518002 0.290241 
0.016428 0.518030 0.275579 
0.016429 0.518041 0.302264 
0.016429 0.518054 0.296241 
0.016442 0.518472 0.293484 
0.016449 0.518671 0.314895 
0.016456 0.518904 0.302768 
0.016459 0.519016 0.327639 
0.016463 0.519120 0.282000 
0.016466 0.519227 0.273315 
0.016470 0.519354 0.299999 
0.016486 0.519849 0.318724 
0.016492 0.520039 0.312628 
0.016505 0.520440 0.325370 
0.016510 0.520619 0.291706 
0.016530 0.521235 0.316451 
0.016535 0.521398 0.310354 
0.016561 0.522230 0.339309 
0.016562 0.522257 0.310866 
0.016566 0.522363 0.292684 
0.016567 0.522393 0.298722 
0.016567 0.522397 0.329773 
0.016577 0.522704 0.323621 
0.016580 0.522821 0.295946 
0.016584 0.522944 0.317489 
0.016594 0.523253 0.343231 
0.016594 0.523258 0.320814 
0.016601 0.523466 0.314688 
0.016603 0.523554 0.324147 
0.016606 0.523634 0.290401 
0.016608 0.523691 0.296438 
0.016608 0.523704 0.337027 
0.016612 0.523831 0.327489 
0.016621 0.524111 0.321336 
0.016630 0.524394 0.350564 
0.016635 0.524548 0.302999 
0.016652 0.525084 0.347720 
0.016655 0.525169 0.334737 
0.016657 0.525254 0.325200 
0.016661 0.525386 0.338108 
0.016665 0.525507 0.319045 
0.016666 0.525526 0.328549 
0.016668 0.525583 0.341488 
0.016677 0.525864 0.300707 
0.016681 0.526012 0.335274 
0.016684 0.526104 0.325726 
0.016687 0.526191 0.310105 
0.016688 0.526226 0.338649 
0.016699 0.526552 0.313422 
0.016700 0.526596 0.345424 
0.016701 0.526624 0.332441 
0.016708 0.526855 0.335812 
0.016709 0.526893 0.316748 
0.016721 0.527259 0.342577 
0.016726 0.527432 0.345972 
0.016729 0.527519 0.323426 
0.016730 0.527539 0.307805 
0.016731 0.527585 0.349375 
0.016747 0.528069 0.330139 
0.016758 0.528418 0.349927 
0.016762 0.528549 0.353342 
0.016768 0.528748 0.340272 
0.016779 0.529104 0.347069 
0.016792 0.529489 0.357324 
0.016795 0.529578 0.360757 
0.016797 0.529647 0.364198 
0.016798 0.529697 0.367647 
0.016810 0.530085 0.351031 
0.016815 0.530211 0.354453 
0.016844 0.531147 0.358442 
0.016849 0.531295 0.365331 
0.016867 0.531874 0.355564 
0.016871 0.531987 0.390264 
0.016873 0.532057 0.362446 
0.016876 0.532160 0.369357 
0.016877 0.532182 0.372824 
0.016899 0.532875 0.387350 
0.016903 0.532999 0.376875 
0.016923 0.533632 0.360119 
0.016927 0.533748 0.384435 
0.016928 0.533803 0.370497 
0.016929 0.533819 0.373971 
0.016952 0.534535 0.364134 
0.016955 0.534624 0.371067 
0.016980 0.535413 0.368163 
0.016980 0.535419 0.382102 
0.016981 0.535448 0.378607 
0.016981 0.535457 0.375118 
0.016995 0.535904 0.396746 
0.017011 0.536414 0.404419 
0.017017 0.536609 0.415695 
0.017025 0.536831 0.412131 
0.017027 0.536918 0.390289 
0.017030 0.536993 0.386773 
0.017031 0.537047 0.383263 
0.017032 0.537081 0.379761 
0.017042 0.537372 0.401475 
0.017050 0.537624 0.412739 
0.017051 0.537673 0.424078 
0.017055 0.537804 0.387357 
0.017056 0.537828 0.409178 
0.017058 0.537897 0.380338 
0.017060 0.537942 0.420496 
0.017067 0.538173 0.402073 
0.017075 0.538435 0.394994 
0.017079 0.538535 0.391464 
0.017085 0.538729 0.421112 
0.017093 0.538980 0.417531 
0.017097 0.539118 0.399125 
0.017100 0.539210 0.413957 
0.017107 0.539419 0.410388 
0.017107 0.539426 0.388525 
0.017116 0.539729 0.429534 
0.017118 0.539770 0.418144 
0.017125 0.540003 0.414566 
0.017130 0.540152 0.392640 
0.017152 0.540853 0.396768 
0.017157 0.541010 0.411599 
0.017163 0.541203 0.408030 
0.017168 0.541351 0.419368 
0.017181 0.541762 0.450804 
0.017194 0.542176 0.439265 
0.017199 0.542331 0.401504 
0.017205 0.542528 0.435642 
0.017210 0.542667 0.424190 
0.017214 0.542800 0.409233 
0.017216 0.542853 0.455735 
0.017219 0.542952 0.447798 
0.017219 0.542978 0.405663 
0.017229 0.543271 0.398542 
0.017230 0.543307 0.436268 
0.017231 0.543351 0.444158 
0.017233 0.543397 0.413415 
0.017239 0.543598 0.409835 
0.017240 0.543640 0.432647 
0.017250 0.543952 0.429031 
0.017256 0.544125 0.444791 
0.017265 0.544422 0.433269 
0.017268 0.544506 0.441153 
0.017275 0.544737 0.429650 
0.017305 0.545673 0.446056 
0.017306 0.545698 0.466303 
0.017313 0.545931 0.470639 
0.017337 0.546682 0.458949 
0.017346 0.546964 0.463270 
0.017366 0.547613 0.443670 
0.017376 0.547910 0.455919 
0.017378 0.547978 0.468251 
0.017378 0.547984 0.440023 
0.017385 0.548213 0.460235 
0.017390 0.548350 0.452251 
0.017415 0.549153 0.477610 
0.017418 0.549252 0.465208 
0.017424 0.549447 0.457198 
0.017428 0.549543 0.449220 
0.017449 0.550231 0.433984 
0.017457 0.550474 0.474555 
0.017463 0.550664 0.454159 
0.017468 0.550823 0.483299 
0.017483 0.551276 0.462806 
0.017487 0.551416 0.479578 
0.017489 0.551462 0.438872 
0.017490 0.551497 0.446817 
0.017498 0.551752 0.459116 
0.017499 0.551778 0.471498 
0.017509 0.552119 0.431578 
0.017511 0.552171 0.480234 
0.017527 0.552661 0.443779 
0.017529 0.552746 0.476513 
0.017540 0.553077 0.485277 
0.017547 0.553298 0.494083 
0.017547 0.553298 0.472797 
0.017561 0.553749 0.456703 
0.017563 0.553828 0.485937 
0.017567 0.553950 0.490338 
0.017572 0.554109 0.499170 
0.017574 0.554146 0.503602 
0.017587 0.554580 0.486596 
0.017591 0.554698 0.491000 
0.017594 0.554789 0.495415 
0.017607 0.555188 0.482858 
0.017615 0.555447 0.491663 
0.017618 0.555535 0.496081 
0.017625 0.555774 0.479125 
0.017639 0.556195 0.492326 
0.017644 0.556366 0.510069 
0.017662 0.556925 0.524164 
0.017665 0.557013 0.519682 
0.017665 0.557026 0.497412 
0.017666 0.557072 0.515209 
0.017667 0.557080 0.501847 
0.017667 0.557103 0.510745 
0.017667 0.557105 0.506291 
0.017681 0.557534 0.529343 
0.017685 0.557653 0.524849 
0.017688 0.557744 0.520363 
0.017690 0.557806 0.515887 
0.017691 0.557840 0.511421 
0.017714 0.558565 0.503185 
0.017736 0.559274 0.517245 
0.017738 0.559325 0.508308 
0.017761 0.560050 0.513447 
0.017785 0.560804 0.541832 
0.017808 0.561523 0.542527 
0.017814 0.561718 0.537996 
0.017819 0.561884 0.533474 
0.017837 0.562440 0.538687 
0.017853 0.562961 0.543916 
0.017860 0.563162 0.539379 
0.017869 0.563448 0.549160 
0.017870 0.563477 0.530330 
0.017888 0.564059 0.535539 
0.017914 0.564880 0.550555 
0.017928 0.565328 0.541453 
0.017937 0.565596 0.551253 
0.018109 0.571028 0.561427 
0.018132 0.571741 0.562128 
0.018149 0.572308 0.552947 
0.018232 0.574903 0.560324 
0.018256 0.575672 0.570955 
0.018312 0.577444 0.567735 
0.018346 0.578512 0.573771 
0.018538 0.584573 0.574744 
0.018549 0.584900 0.580107 
0.020216 0.481861 0.149753 
0.020243 0.482510 0.147647 
0.020280 0.483392 0.154871 
0.020308 0.484063 0.152758 
0.020331 0.484613 0.157598 
0.020336 0.484724 0.150643 
0.020363 0.485376 0.148524 
0.020388 0.485968 0.153360 
0.020430 0.486976 0.146691 
0.020470 0.487932 0.146980 
0.020491 0.488414 0.158834 
0.020501 0.488665 0.161279 
0.020520 0.489101 0.156700 
0.020548 0.489780 0.154562 
0.020576 0.490449 0.152422 
0.020599 0.491005 0.157309 
0.020657 0.492382 0.172098 
0.020670 0.492695 0.164998 
0.020688 0.493127 0.169946 
0.020700 0.493410 0.162845 
0.020704 0.493510 0.174914 
0.020710 0.493643 0.165315 
0.020719 0.493863 0.167791 
0.020720 0.493877 0.209822 
0.020728 0.494072 0.170272 
0.020730 0.494115 0.160688 
0.020736 0.494268 0.172757 
0.020758 0.494787 0.207663 
0.020759 0.494809 0.168112 
0.020764 0.494931 0.151448 
0.020768 0.495017 0.170597 
0.020796 0.495688 0.205501 
0.020796 0.495694 0.215723 
0.020797 0.495722 0.180586 
0.020803 0.495867 0.183095 
0.020823 0.496324 0.193179 
0.020829 0.496476 0.198248 
0.020830 0.496504 0.178420 
0.020835 0.496629 0.213556 
0.020837 0.496661 0.180928 
0.020848 0.496936 0.185960 
0.020858 0.497161 0.191010 
0.020862 0.497255 0.193541 
0.020865 0.497336 0.196078 
0.020869 0.497445 0.178758 
0.020870 0.497460 0.201163 
0.020872 0.497500 0.149862 
0.020872 0.497503 0.203712 
0.020873 0.497534 0.206266 
0.020874 0.497551 0.208824 
0.020882 0.497742 0.183788 
0.020887 0.497872 0.186310 
0.020892 0.497989 0.188837 
0.020897 0.498094 0.191368 
0.020913 0.498472 0.209210 
0.020915 0.498539 0.181612 
0.020946 0.499270 0.222485 
0.020948 0.499321 0.219899 
0.020948 0.499325 0.179433 
0.020951 0.499380 0.207031 
0.020951 0.499395 0.212167 
0.020975 0.499960 0.192085 
0.020981 0.500103 0.177251 
0.020988 0.500275 0.217717 
0.021021 0.501054 0.197544 
0.021026 0.501166 0.202662 
0.021028 0.501219 0.215530 
0.021057 0.501911 0.195354 
0.021063 0.502045 0.200471 
0.021063 0.502065 0.221108 
0.021066 0.502127 0.205606 
0.021067 0.502148 0.242420 
0.021067 0.502154 0.213339 
0.021099 0.502914 0.198277 
0.021111 0.503200 0.240225 
0.021142 0.503945 0.203786 
0.021155 0.504243 0.238025 
0.021176 0.504747 0.224925 
0.021180 0.504856 0.219710 
0.021198 0.505275 0.235820 
0.021241 0.506299 0.233612 
0.021248 0.506475 0.247241 
0.021249 0.506494 0.228359 
0.021255 0.506637 0.223121 
0.021284 0.507312 0.231398 
0.021326 0.508318 0.259228 
0.021373 0.509443 0.257006 
0.021382 0.509665 0.240584 
0.021388 0.509803 0.237934 
0.021414 0.510414 0.243669 
0.021420 0.510568 0.241011 
0.021427 0.510736 0.263277 
0.021431 0.510835 0.235705 
0.021462 0.511559 0.280897 
0.021464 0.511624 0.263735 
0.021466 0.511664 0.252546 
0.021474 0.511858 0.233472 
0.021476 0.511900 0.278183 
0.021479 0.511960 0.230823 
0.021483 0.512077 0.284098 
0.021495 0.512347 0.255671 
0.021502 0.512520 0.239202 
0.021512 0.512761 0.250310 
0.021512 0.512769 0.261498 
0.021517 0.512871 0.231234 
0.021520 0.512947 0.247633 
0.021527 0.513108 0.275945 
0.021541 0.513449 0.287797 
0.021541 0.513457 0.253431 
0.021545 0.513558 0.236961 
0.021551 0.513676 0.234301 
0.021559 0.513874 0.228992 
0.021560 0.513904 0.259256 
0.021565 0.514014 0.267814 
0.021570 0.514135 0.256563 
0.021577 0.514306 0.273701 
0.021587 0.514557 0.251186 
0.021593 0.514698 0.285552 
0.021597 0.514798 0.291514 
0.021598 0.514802 0.303507 
0.021599 0.514833 0.297499 
0.021627 0.515495 0.271453 
0.021645 0.515938 0.283302 
0.021651 0.516064 0.289263 
0.021651 0.516071 0.274640 
0.021653 0.516120 0.301256 
0.021653 0.516125 0.295248 
0.021660 0.516290 0.280569 
0.021670 0.516523 0.304522 
0.021672 0.516563 0.298499 
0.021676 0.516673 0.269199 
0.021689 0.516983 0.301760 
0.021701 0.517263 0.272384 
0.021707 0.517407 0.292992 
0.021708 0.517428 0.298999 
0.021711 0.517509 0.278311 
0.021725 0.517835 0.275579 
0.021725 0.517842 0.266940 
0.021726 0.517860 0.296241 
0.021756 0.518566 0.284745 
0.021762 0.518727 0.296737 
0.021794 0.519484 0.309332 
0.021801 0.519654 0.318724 
0.021808 0.519803 0.282478 
0.021809 0.519844 0.312628 
0.021816 0.520016 0.294469 
0.021822 0.520149 0.262407 
0.021825 0.520218 0.271046 
0.021830 0.520343 0.309843 
0.021850 0.520808 0.322569 
0.021857 0.520986 0.335404 
0.021859 0.521029 0.280205 
0.021859 0.521038 0.316451 
0.021862 0.521092 0.325900 
0.021870 0.521298 0.304279 
0.021873 0.521356 0.329240 
0.021881 0.521556 0.313658 
0.021885 0.521658 0.323095 
0.021887 0.521689 0.307568 
0.021897 0.521939 0.326430 
0.021909 0.522209 0.320291 
0.021916 0.522387 0.346064 
0.021917 0.522413 0.314173 
0.021918 0.522443 0.333125 
0.021931 0.522747 0.317489 
0.021938 0.522919 0.311377 
0.021944 0.523061 0.320814 
0.021954 0.523286 0.333662 
0.021957 0.523357 0.324147 
0.021957 0.523366 0.350009 
0.021968 0.523633 0.327489 
0.021970 0.523684 0.360234 
0.021979 0.523891 0.343779 
0.021989 0.524129 0.334200 
0.022014 0.524736 0.331374 
0.022032 0.525148 0.354528 
0.022036 0.525250 0.357943 
0.022042 0.525385 0.341488 
0.022056 0.525720 0.348272 
0.022066 0.525977 0.355087 
0.022096 0.526689 0.352231 
0.022104 0.526868 0.339190 
0.022111 0.527034 0.365937 
0.022112 0.527061 0.342577 
0.022119 0.527233 0.345972 
0.022161 0.528219 0.349927 
0.022171 0.528462 0.356764 
0.022175 0.528553 0.360194 
0.022178 0.528625 0.363632 
0.022216 0.529535 0.374567 
0.022249 0.530318 0.368217 
0.022284 0.531163 0.372250 
0.022284 0.531167 0.375721 
0.022306 0.531686 0.393772 
0.022313 0.531856 0.362446 
0.022316 0.531918 0.365898 
0.022350 0.532736 0.383851 
0.022352 0.532778 0.380360 
0.022378 0.533398 0.391446 
0.022386 0.533591 0.380940 
0.022421 0.534431 0.378029 
0.022421 0.534437 0.374545 
0.022449 0.535099 0.389113 
0.022452 0.535169 0.385604 
0.022490 0.536065 0.372207 
0.022520 0.536790 0.386773 
0.022522 0.536830 0.408573 
0.022542 0.537308 0.397936 
0.022549 0.537470 0.424078 
0.022563 0.537808 0.405623 
0.022591 0.538471 0.384425 
0.022603 0.538771 0.402672 
0.022603 0.480142 0.151555 
0.022614 0.539038 0.395585 
0.022619 0.539141 0.392052 
0.022626 0.539314 0.421727 
0.022634 0.480798 0.149456 
0.022637 0.539571 0.403270 
0.022648 0.539844 0.396177 
0.022655 0.540011 0.410994 
0.022656 0.540022 0.449525 
0.022662 0.481379 0.154261 
0.022663 0.540202 0.407428 
0.022665 0.481445 0.147355 
0.022670 0.540353 0.453807 
0.022670 0.540357 0.418756 
0.022677 0.540521 0.400315 
0.022680 0.540592 0.415174 
0.022692 0.540888 0.422959 
0.022713 0.541385 0.415783 
0.022725 0.541676 0.423574 
0.022738 0.541976 0.447162 
0.022740 0.483039 0.145539 
0.022755 0.542397 0.412810 
0.022766 0.542654 0.432024 
0.022769 0.483660 0.150346 
0.022769 0.542727 0.420592 
0.022771 0.542773 0.405663 
0.022776 0.483811 0.159713 
0.022787 0.543147 0.444158 
0.022802 0.543517 0.421205 
0.022809 0.484502 0.157598 
0.022831 0.544191 0.410437 
0.022832 0.544211 0.469333 
0.022832 0.485005 0.162460 
0.022841 0.485185 0.155480 
0.022846 0.544555 0.418218 
0.022849 0.544631 0.453361 
0.022850 0.544661 0.437520 
0.022862 0.544945 0.457664 
